# 3D point list with one line of data per point:
#   POINT3D_ID, X, Y, Z, R, G, B, ERROR, TRACK[] as (IMAGE_ID, POINT2D_IDX)
# Number of points: 264, mean track length: 4.6423425757968388
1428 -1.1110069748710398 -1.3900221055428008 4.7010239908555587 164 165 160 0.7874355157935603 7 6932 29 7318 30 7114 27 3995 26 4247 35 3964 31 7658 9 8673 22 4861 24 6252 25 6751 5 940 18 349 6 236 19 436 3 1150
1429 -0.43790245514963339 -1.395008833200021 4.6590909793840982 88 81 79 0.85784756662091466 28 4308 29 7321 26 4256 35 3980 31 6286 34 9232 22 4873 23 6210 25 6591 8 3996 18 359 6 130 19 266 41 476 2 981 37 938 38 451
1430 -0.26654005765944305 -1.414171024055304 4.6485074391490269 215 214 209 0.5306214631205467 7 6997 29 7323 36 6757 34 9235 22 4875 25 9590 8 6124
1431 0.10883237091766255 -1.5209012290113293 4.619953513133197 243 239 233 1.3125568255215505 28 6100 29 7325 30 7165 27 5666 26 6145 35 5778 36 6760 31 6289 34 9141 22 6911 5 8343 3 4063 2 3711
1432 0.23644965066582357 -1.4607548373056889 4.6180113054294578 176 171 167 0.83588659392344233 28 6150 29 7326 30 7167 27 5668 26 6148 35 5782 36 5652 34 9237 22 4878 23 6079 25 9503
1433 0.79628259168517013 -1.5405192717090723 4.5835812529179121 124 119 120 0.88048538370000895 28 4137 29 7329 27 3846 26 4160 35 3814 36 3850 31 4201 34 10994 22 4760 23 6085 24 6105 25 9420 5 6959 4 577 4 3845 41 6121 3 3993
1434 0.99698554249194671 -1.4904995795804596 4.5726917654992851 173 169 164 1.1658759882757752 28 6155 29 7331 30 7209 26 6155 35 5789 36 5657 31 4205 34 9153 9 4706 23 6096 24 8960 25 11160 8 357 4 583 41 6125 2 845
1435 0.99687734018922991 -1.4909975657479704 4.5735964698461409 173 169 164 1.06901265696753 28 6154 29 7332 30 7210 26 6154 35 5790 36 5658 34 9152 23 6095 24 8961 25 11159 4 582 4 3847 41 6126 2 844
1436 1.0147551657029106 -1.5422519154771683 4.5697181555989648 128 124 121 1.0229538058507355 28 6109 29 7333 30 4890 27 5633 26 4162 35 5737 36 5656 31 6330 34 9151 9 7124 22 4765 23 6090 24 8959 25 9422 5 8314 8 4043 4 3846 3 3994 2 692 2 3623
1437 1.2534772633703375 -1.5151824406767338 4.5560068391064759 214 211 202 1.2327790649079415 28 6158 29 7336 30 7212 36 5660 34 10997 9 7195 22 6923 23 8804 24 8964 25 11163 5 8291 4 3850 41 6092 3 3995 2 3629
1438 1.4392920265163665 -1.6002342595174244 4.5446158769113048 224 221 212 1.5078699542300946 7 6900 29 7337 24 8898
1439 -2.4671868454173094 -1.2012972849066976 4.7897644674460818 211 210 205 0.69631741181831341 7 8324 29 7363 26 4467 34 9428 22 5162 23 6362 5 1178
1440 -2.4676304161711973 -1.2023607825093197 4.7935537079045423 211 210 205 0.56331450608719558 7 8325 29 7364 26 4468 23 6363
1441 -1.7045186077885477 -1.2118390657747613 4.7490121821600271 177 176 167 0.84308345259227735 28 4389 29 7371 30 7149 27 1029 26 4335 9 8688 22 5168 23 1508 24 1484 5 1181 6 445
1442 -1.2066216935959249 -1.324661018571649 4.7102713010110886 182 182 180 1.0380878453761622 28 4300 29 7373 30 7150 27 3992 26 4245 7 6982 35 5851 34 9312 9 8670 22 4996 23 6192 24 6249 25 6748 5 5036 18 510
1443 -1.053191196396644 -1.2588068916299839 4.7096260280941786 170 169 165 0.94799499121083863 7 7036 29 7374 26 4339 35 5853 5 5138 3 1323
1444 -1.0550148229635996 -1.2549525678607429 4.6924988151854441 170 169 165 1.6757303544260373 28 6248 29 7375 30 7192 26 4340 27 4084 35 5854 31 7690 24 6254 25 9677
1445 -1.0136145357577155 -1.2940986260803211 4.6904577140904875 239 237 233 1.601203679204426 7 6985 29 7376 30 7153 9 8691 22 4999 24 9018
1446 -0.81017836232528273 -1.3268096990073703 4.6903885793329776 230 229 224 1.0432380228508515 7 6989 29 7378 30 7155 27 3998 26 4252 31 6282 34 9317 22 5002 8 6119
1447 -0.59520832059729689 -1.3113900794350291 4.6762997702227587 249 247 242 0.91611003711097594 7 6994 29 7382 30 7193 27 4001 26 4342 35 5856 36 5693 31 6320 34 9319 9 8719 23 6205 24 6260 25 6756 8 6147
1450 -0.37090806737915333 -1.3842135898600534 4.656543399107691 176 171 167 1.3948356502725603 28 4309 29 7387 30 7162 27 4005 26 4259 35 5819 36 5698 34 9233 9 7078 23 6211 24 6265 25 6596 5 4940 18 362 19 267
1451 -0.37230084856433449 -1.3854713789402815 4.6594103886161289 176 171 167 1.1976132821723546 28 4310 29 7388 27 4006 26 4260 36 5697 23 6212 5 4941 18 363 8 3999 6 133
1452 -0.44260333623116549 -1.2883015071360244 4.6658338564251718 84 77 72 1.3253347649497473 7 7040 29 7390 26 4346 30 4869 34 9327 9 7120 5 5053
1453 -0.44200422969588032 -1.2865145457182443 4.6653942648733455 84 77 72 0.90740433233953721 7 7039 29 7391 26 4347 23 6394 25 9683 5 5052
1454 -0.34564128009657386 -1.3303458182987462 4.6625225283894034 179 174 170 1.3249035637776516 7 6996 29 7392 30 7198 26 4261 31 6324 34 9336 22 5016 23 6218 24 6276 25 6598 5 4943 8 6151 18 4040 6 4608 19 270 3 1157 2 985 62 8992 60 8776 58 1269
1455 -0.31235395628851437 -1.2944794015554855 4.6592708141566588 106 96 94 1.1449984516082772 7 7047 29 7394 30 7200 26 4357 36 6811 31 6325 34 9339 9 7162 22 5020 8 4033 18 4131 3 1166 63 11665 59 10801 61 11150 62 10540 60 10445 53 10315 58 9169 42 6936 43 5166 44 4695 45 567 47 5384 49 981
1457 1.1571648322311821 -1.4522010685575255 4.5685491606791251 194 190 181 0.88521221262943595 28 6157 29 7401 30 4894 27 3944 35 3897 36 5708 34 9240 9 619 22 4891 23 6240 24 6113 25 9425 5 6966 8 360 4 587 41 6130 2 849
1458 -2.2969428893141735 -1.1469173864625253 4.7952767765084019 187 182 176 0.5579776053809945 7 7102 29 7418 27 4188 22 5164 24 6410
1459 -1.9198362974605054 -1.1237574030900024 4.7715406414638899 149 147 113 0.52198067371305412 7 7104 28 4487 29 7420 30 7181 28 1207 27 1212 34 6516
1461 -0.4047617320941011 -1.1976182835360196 4.6762031990217583 231 231 221 1.098071066497406 7 7114 28 4413 29 7434 30 4944 27 4091 26 4351 35 5955 36 5748 31 4267 34 9448 9 7208 22 5022 23 1556 24 6428 25 6764 5 5060 8 6177 18 4134 6 4800 19 4283 17 4723 2 1152
1462 -0.33407681269762229 -1.2680028393839009 4.6612715407773573 224 220 211 1.1455465639385585 7 7049 29 7435 30 4945 27 4095 26 4354 35 5865 36 5753 31 6364 34 9342 9 4752 22 5023 23 6402 24 6277 25 6768 5 5058 8 4070
1463 -0.33408879330707664 -1.2679140195317635 4.6612970137469505 224 220 211 1.1476915978650442 7 7048 29 7436 30 4946 27 4096 26 4355 36 5754 31 6365 34 9343 9 4753 22 5024 24 6278 23 6403 25 6767 5 5059 8 4071
1465 0.18604147691055736 -1.2207177708874852 4.6375930432512842 103 96 90 1.0614765110361006 7 7071 28 7403 29 7454 30 7328 27 5803 26 6255 35 5896 36 6827 31 6452 34 11183 22 7042 23 10355 25 11322 5 8428 8 4146 18 6170 6 7113 17 7013 3 4157 2 3903 63 11704 62 11358 60 11432 53 10382 58 9185 43 7329 44 4718 46 371 45 756 48 5335 57 5557 50 6397 55 1284 1 1481
1466 0.18580858469658706 -1.2204506880888009 4.63712197142417 103 96 90 1.1308491392676159 7 7070 29 7455 30 7329 26 6256 35 5895 27 5804 28 7404 36 6826 31 6451 34 11182 9 7227 22 7041 23 10354 25 11323 5 8427 8 4145 18 6169 6 7112 19 6350 4 4103 4 4104 17 7012 3 4156 2 3902 63 11703 59 10852 61 11197 62 11357 60 11431 53 10381 58 9184 52 12313 42 7033 43 7328 44 4717 46 370 45 755 47 5545 48 5334 56 1206 57 5556 50 6396 49 5376 55 1283 1 1482
1467 0.25095250969343197 -1.2867713347866498 4.6290447084509161 108 102 93 0.93761015644594414 28 6274 29 7457 30 7268 27 5801 26 6259 35 5890 36 6830 31 6386 34 11122 23 8957 25 9600 8 4091 4 858 59 10816 63 10833 61 10361 62 10561 60 10462 53 10323 52 11771 42 6947 43 5190 44 4719 46 373 45 578 47 5396 48 962 56 1054 57 1117 50 6399 49 812 55 1103 38 473
1468 0.31187448610572488 -1.2683093269242216 4.6271983688287541 114 101 93 1.3257993941761259 7 7078 29 7460 30 4964 27 4112 35 4073 36 4019 9 4848 8 453 6 4621
1469 0.38566528915163922 -1.3123754267879082 4.6208510914234324 216 213 204 1.8297218788527037 28 6209 29 7461 27 5715 26 6195 35 5823 34 11130 22 7046 24 6297 5 7076 18 6108 6 7069 19 6279 63 12159 61 11155 59 11598 61 11615 62 11789 53 10827 58 10569 42 9719 43 8461 46 7305 45 4997 60 11395 47 7616 56 9070 57 5563 55 4223
1470 0.42707569725452182 -1.314990241577717 4.6219834870106009 247 245 240 1.2806985144771652 7 7077 29 7462 30 7275 27 4012 28 4324 26 4269 35 5824 36 5773 31 4286 34 9362 9 7189 22 5054 23 6235 24 9031 5 8383 8 6197 18 6109 6 7070 19 4193 4 863 3 4163 2 3807 63 10835 59 10822 61 10362 62 10514 60 10466 47 878
1471 0.65959597559587824 -1.3067738712454462 4.6062868318606309 246 244 234 1.3857927345456662 28 6212 29 7468 26 4389 27 4016 36 4029 34 9370 22 5066 23 6238 24 9038 25 11240 5 8388 19 6283 18 6116 4 4004 3 4166 2 3810
1472 0.93744246458887437 -1.2835239399959528 4.5898120310792585 106 96 90 0.89027489322488207 28 6293 29 7469 30 7345 27 5718 26 6284 35 5914 36 5787 31 6470 34 11140 9 7248 22 7060 23 8985 24 9040 25 9607 5 8392 8 6255 18 6058 6 7018 19 6286 4 4006 41 6192 3 1203 3 4173 2 1026 2 3812 63 10862 59 10870 61 10396 62 10584 60 10481 53 10303 58 9105 52 11782 42 6960 43 5060 44 4742 46 392 45 600 47 5414 48 5240 56 1070 57 1135 50 6422 49 824 55 1121 38 5998
1473 -0.69671333289425119 -1.1305168259202869 4.7094463905022002 210 207 200 0.71512990784594133 28 6337 29 7499 26 6327 35 5949 24 6425
1475 -0.12745131484088179 -1.1953364637361243 4.6621713391987072 199 194 188 1.2552848029084458 28 6264 29 7502 30 7257 27 5790 26 6245 35 5959 36 6867 31 6440 34 9452 9 7214 22 5035 23 6417 24 6436 25 9699 5 7193 8 4139 18 4145 19 4289 17 4656
1476 0.020285020789617789 -1.1663209738698361 4.6585534142071801 187 183 180 0.94678787514361284 28 6346 29 7503 30 7327 27 5882 26 6342 36 6874 31 6447 34 11178 24 9125 22 5184 25 9708
1477 0.11301646295798404 -1.1660217428092168 4.6479090493326991 181 178 172 2.0366128591137822 7 4959 29 7504 27 4201 26 4484 35 5964 36 5815 31 4355 22 5186 23 6425 25 6782 8 4147 6 7114 19 4293 17 7014 37 4257 41 6314
1478 0.34694575942966466 -1.1332149231013573 4.6431335368304794 253 253 245 0.8921514985491461 28 4504 29 7509 26 4485 36 4132 31 866 9 4927 22 1456 23 6434 24 6442 25 9713
1479 0.55012594155801664 -1.1621351770589405 4.6291862280695133 187 182 178 1.0079059808630986 7 4966 29 7514 30 5043 27 4202 26 4487 36 4139 34 9463 22 5193 23 6439 24 9138 25 9716 5 7199 18 4156 6 4736 19 4305 4 1050 17 4664 3 1354
1480 0.60052225128988002 -1.1578691222034581 4.622454887100198 193 188 182 1.2553885965215035 28 6350 29 7515 30 5044 27 5887 7 7127 26 6347 35 5968 36 6880 31 4432 34 9464 22 7135 23 8979 24 9139 25 11335 5 8472 18 6175 6 7123 19 4306 4 1052 17 7025
1481 0.65448405575202395 -1.2420414414476126 4.6111731272965537 109 99 89 1.274282204541114 28 6292 29 7516 30 7338 27 5821 26 6278 35 5909 36 5781 31 6468 34 11137 9 7242 22 5067 23 8978 24 9140 25 9604 5 8440 8 4163 18 6117 6 7077 4 4005 3 4167 2 3915 63 10858 59 10861 61 10391 60 10478 58 9192 42 7046 43 5197 44 4738 45 591 48 5346 56 6454 57 1132 50 6419 49 1007
1482 0.78702074331171956 -1.2309540385467967 4.6046687623863205 252 250 239 1.4802716715368538 28 4431 29 7517 30 5047 27 4122 26 4394 35 4086 36 4034 31 4370 34 9468 22 5072 23 6442 25 9606 5 7081 18 411 6 4636 19 306
1483 0.85900885734397758 -1.1523194704248361 4.6155163288845964 187 182 176 1.4966720454038769 28 6351 29 7518 26 6348 35 4184 34 11191 23 8988 24 9146 25 9721 5 7151 18 6176 6 4641 19 4311 17 7026 3 1202
1484 0.9394342912135536 -1.2161451835559698 4.5954749040170269 101 91 86 0.93854301819400787 28 6297 29 7520 30 5056 27 4132 26 6289 35 5917 36 5825 34 11193 22 5074 23 8987 25 11249 5 8398 8 621 6 7082 3 1212 2 1193 63 10868 59 10875 61 10402 62 10587 60 10485 53 9590 58 9198 43 5202 44 4749 46 395 45 608 47 5420 48 1194 56 1221 57 1287 41 6251 50 6430 49 1013 55 1301
1485 1.188920818482875 -1.2140239111827316 4.5815724800943807 92 85 75 1.2038850257476688 28 6302 29 7524 27 5833 35 4106 36 5833 31 4440 34 9474 22 5082 23 8995 24 9159 25 11258 5 8407 18 6127 6 8405 19 6295 4 5720 41 6198 3 4180 2 3815 63 10908 59 10884 61 10411 62 10600 60 10497 53 9598 58 9208 52 11018 42 7072 43 5208 44 4762 46 414 45 621 47 5431 48 1199 56 1230 57 1297 50 6442 49 1022 37 6036
1487 1.28706270428304 -1.2140550382783455 4.5771171369242207 102 93 86 1.0340193493905543 28 6306 29 7527 30 5061 26 6296 7 7130 35 5920 36 5835 31 4441 34 11198 9 4937 22 7068 23 8997 24 9165 25 11262 5 9242 8 4223 18 6131 6 8408 19 6296 4 4018 41 6208 3 4183 2 3821 37 6039
1488 1.4050642012124599 -1.2467931466660729 4.563604890548965 111 102 93 1.3263111935751055 28 7419 29 7529 30 5063 26 6297 35 5925 31 4446 34 11142 23 8999
1489 1.6039319167386836 -1.2128254780182375 4.5609918790451802 197 198 187 0.69834113885302107 7 4982 29 7532 30 1310 26 4430 35 4114 36 4159 31 903 34 9483 9 881 22 5098 23 6474
1490 1.6341380020206757 -1.2710746651454279 4.5505816640508039 199 197 189 1.1123166437768963 7 4892 29 7535 27 5721 35 4003 36 4054 34 9390 22 5090 23 6475 24 9051 18 6069 19 6240 4 3925 41 6172 3 4082 63 10883 59 10897 61 10425 62 10611 53 9550 58 9123 52 10990 42 7081 43 5082 44 4776 46 430 45 630 48 999 56 1091 50 6458 49 843 55 1129
1491 1.0431866629496858 -1.1009171849879922 4.6062213514093946 192 178 152 1.1485586320351875 28 6353 29 7565 30 7382 27 5888 26 6350 35 5971 36 5873 31 4509 34 9550 9 7320 22 5195 8 4285
1492 1.340834348163024 -1.1106597944604757 4.5787812152938612 182 178 166 1.6945615392075708 28 4524 29 7567 30 1299 26 1220 36 4155 31 4511 34 9479 9 4994 25 6822
1494 1.542942027033922 -1.146445426542384 4.5721667235679027 181 177 168 1.1543603235385058 28 6356 29 7569 27 5840 26 4497 31 975 34 9485 22 5095 23 6478 18 6135 24 9170 19 6300
1496 1.5440470985796302 -1.0178596795983665 4.5558125802842087 32 48 35 0.24984622339812401 7 8424 6 4747
1497 1.7146026904362142 -1.0555567419898231 4.7084458220776026 32 48 35 1.9699845842728008 7 8425 30 1383 31 4516 19 515
1498 0.24403342397727043 -0.7991262602718584 4.9809400644868447 186 187 181 1.7785932945616307 28 4654 29 7647 30 5208 27 4352 26 4634 36 4328 23 6699 32 6732 65 12494 67 8984 31 6607
1499 -1.9701903573845809 -0.50448836779258333 4.2286012880474342 156 179 37 1.4235009599312698 7 8502 29 7657 34 9706 51 5647
1500 -1.9214129680173333 -0.38213429092192641 3.9859052747406123 192 214 67 1.7749480061187735 7 7367 28 4736 29 7693 27 4435 26 4709 35 6147 23 2156
1501 0.58135634930239799 -0.58309470626197002 5.0088929695880733 1 8 7 1.7092197460019363 7 5204 29 7702 30 5259 35 4364 24 10613
1502 -2.4460464031505254 -0.26023655103130078 4.7848773898398891 207 229 39 1.7022691165935075 28 4808 29 7722 26 4798
1503 -2.0751104489510785 -0.24318577585803217 3.961321176797822 28 46 1 1.2499262365867483 7 7459 28 4813 29 7724 26 1664 27 1630 28 1660 34 7042 22 1924
1504 -2.0480839621737394 -0.2330718972999099 3.8800676276938324 3 21 0 1.9422605625185547 7 7461 28 4815 29 7725 30 7602 27 4501 26 1665 34 9844
1505 -1.9637571799353462 -0.24625009514382307 3.9242607113921371 134 161 58 1.0847294665400042 28 4818 29 7729 26 4803
1506 -1.9085049161728695 -0.28932520189550442 3.8889362973315769 167 192 26 1.8647480567800232 28 4738 29 7730 27 4502 26 4804 35 6179 22 1931 23 2163
1507 -1.8579528223010091 -0.27755648130780175 3.897146944517119 92 117 27 0.64337350083067291 28 4823 29 7733 35 6183 23 2165
1508 -1.7217720935425502 -0.25159812836529244 3.9711937626549338 40 52 18 1.1339368528951406 28 6531 29 7735 27 4503 26 4813 35 6188 34 9856 51 5780
1509 -1.7226091970645281 -0.2511343693631804 3.9686949302548533 40 52 18 1.3816463111114019 28 6532 29 7736 27 4504 26 4814 35 6189 34 9855 7 9252 23 2174 51 5781
1510 -1.7024636286283858 -0.23709739535073479 3.9376977137602531 145 165 31 0.86350433978462737 28 6535 30 5455 27 4505 26 6511 35 6191 34 9857 22 5451 33 3503 51 5782
1511 0.50525445890227116 -0.46938311145911599 5.0265614654139004 0 7 0 1.7474170508254949 28 4768 29 7753 27 4403 35 4409 34 9789 22 5380 23 2227 24 2139 25 7253 62 9311 53 8400 58 2036 52 11217 64 12261 65 10882 46 923 49 1374 51 5809 12 12266 13 12273
1512 0.58838845392790784 -0.44434503118792973 4.9977775010564489 95 151 157 1.1271324058586023 28 4771 29 7757 30 7532 34 9791 9 5252 67 9713 68 12857 56 1630 70 14767
1513 0.8226983991133543 -0.46520513878762121 5.0115257091888505 2 16 16 1.4933097292289785 23 2232 62 9315 64 10638 65 12546 57 1663 66 10308 67 9715 54 8214 29 7758 34 9797 35 6054
1514 -2.0985002595133051 -0.19496518827976234 4.0196561841534262 11 25 2 1.7452293387574247 7 8604 29 7775 27 1738 26 1788 28 1662 34 9843 22 2127
1515 -1.9574189540146512 -0.19328999557499657 3.8581265917493854 110 140 16 1.4437601989893785 28 4820 29 7778 27 4573 26 4805 34 9850
1516 -1.8606012012726281 -0.20506510004999673 3.8554589612300409 148 167 24 1.7246403403170194 7 8608 29 7779 27 6045 26 4810 35 6209 22 5588 23 6895 25 7436 59 9526 60 10717 62 10782 58 7041 50 2092
1517 -1.8490442583196109 -0.21927524222458608 3.8307930862750945 2 18 0 0.32421667030876167 29 7780 30 8824
1518 -1.7987839001205899 -0.16455452218728253 3.9010721289123933 11 26 7 1.0545082255513545 7 8609 28 4916 29 7783 27 4583 26 4898 35 6212 22 5591 23 2357
1519 -1.7852703978404909 -0.14927654687418598 3.8817529783607458 206 228 111 1.4167254038531363 30 7678 27 4585 26 6557 35 7169 28 6580 22 7378 23 6900 24 9348 25 10101 33 3551
1520 -1.7858549017044756 -0.14978025098048312 3.9031341272115414 206 228 111 1.6083283680319027 7 7516 28 6581 29 7785 27 4584 26 6558 35 7170 22 7379 23 6901
1521 -1.7064719835057287 -0.17981470879191322 3.9691907885050202 6 20 3 1.8725359160113912 28 6582 29 7788 27 6081 26 6559 35 7173 22 5595 23 6903 58 7044 47 1523 48 1672 56 1782 50 2102 49 1641
1522 -1.7074139390047005 -0.18034228866931967 3.9666753868226756 6 20 3 1.7301301165025318 7 7472 28 6583 29 7789 27 6080 35 7172 34 9858
1523 0.88948121659018131 -0.36925325343155735 4.9890908796510427 7 38 40 2.3137178610131932 28 7549 27 6877 31 6765 22 7249 23 10476 24 10658 5 9356 25 11524 32 6875 6 8573 16 8013 32 8084 15 8030 15 8846 62 11476 61 11302 30 8805 58 10761 67 10148 56 6878 57 7914 68 13319 49 5681 70 14936
1524 -3.2732413806089595 -0.10906211452503713 4.5911504004901502 14 13 0 1.8978994663664495 28 4895 29 7831 27 4626 26 4943
1525 -2.891710468059129 -0.054112059757690879 4.9777327836223799 244 238 216 2.2142137698278277 28 4973 29 7841 27 4642 26 4952
1526 -1.9562712638064108 -0.12775734212614212 3.8666222827687053 1 1 3 1.7573489008950978 28 6576 29 7859 30 8877 27 4576 26 6555 35 7189 34 9922 22 5583 23 6893 25 2506 24 2089 33 5446
1527 -1.9691675679550309 -0.10041800301744173 3.9140066810852505 0 1 4 1.2328506245540958 28 4912 29 7860 27 4577 26 4897 35 6245 34 9926 22 5584 23 2350 51 5905
1528 -1.9707691590948204 -0.1002535852410391 3.8986002095614718 0 1 4 1.756901151823461 29 7861 30 8916 35 6246 34 9925 7 8638
1529 -1.7566382644752288 -0.12593985011105038 3.949174880333556 80 101 37 1.7259053067405858 28 4918 29 7862 27 4587 26 4900 35 7191 22 5596 23 6905 50 2104 56 1784 57 1801 51 5912
1530 -1.5641593772578744 -0.15034871918170151 4.4044307701055558 20 23 11 1.478718032319458 28 7598 29 7863 27 6083 26 6561 35 7174
1531 -1.3631339507451861 -0.14376419100738991 4.3697333657795161 144 153 49 1.3461275917862547 29 7864 30 7682 27 4590 35 6217 28 4922 34 9934
1532 -2.0289184241317488 -0.015416867094774548 3.9174785517955333 5 15 3 1.0963611355023899 28 4984 27 4656 26 4964 9 10116
1533 -1.007197021875506 -0.037013458519727913 4.6656384433783042 44 41 34 1.6626066900373044 7 8647 28 6642 29 7909 27 4677 26 4987 35 6224 34 10001
1534 -1.8137337442984602 0.027174911819355857 3.7915630834613543 38 54 18 1.1484076193903738 28 5059 29 7939 27 4727 26 1998 35 6289
1535 -2.5541421586548734 0.1572382795106827 2.7365925265165347 24 39 6 0.91172175266374644 28 2213 29 8004 27 2136 26 2179
1536 -2.0589031531670803 0.14262583905971676 2.9555580392892185 153 156 149 0.70516871830712125 28 2105 29 8013 34 2472
1537 -2.8541488835062263 0.1784582095398517 2.5078571860093755 21 28 8 1.1087057921173717 28 2200 29 8048 27 2226 26 2161
1538 -2.7923873167743962 0.17283813974300744 2.5339317308547429 23 32 4 0.98286405694157641 28 2202 29 8049 26 2163
1539 -2.6931086913831508 0.16755287763242552 2.6449098595191982 9 22 4 1.1046864212963043 28 2209 29 8055 26 2173
1540 -2.5827673627821968 0.20830258874534427 2.2387246665234803 155 156 157 0.99982831962163221 28 2327 29 8150 27 2229
1541 -2.4811393479761641 -1.6589457698544958 4.7743802030368458 247 248 242 0.53515062111704248 28 6034 29 8719 26 6079
1542 -1.452293453213571 -1.718942799958477 4.6943121060605399 177 176 172 1.3757838356874217 7 8206 29 8726 30 8522 27 6658 26 6054 35 6823 22 6842 23 8711 24 8860 25 9480 5 4743 18 3879 41 4174
1543 -0.69115164441032961 -1.8035496049487614 4.6358848741225573 206 206 198 0.93514728502514644 28 6004 29 8728 30 8539 26 6016 31 7628 24 8794
1544 -2.4230577809925138 -1.5748551023084194 4.7344953214146459 126 130 130 1.1460677522581342 7 9080 28 6077 29 8738 27 6665 26 6080
1546 -0.96572285413924996 -1.6681825385153182 4.6707564087342721 225 224 220 0.96876147099673626 7 8229 29 8745 30 8552 27 5620 26 6091 24 8865 25 9485 5 4749 3 835 18 3882
1547 0.24109516843270329 -1.8150930124764539 4.5795354679689693 171 170 166 1.1220245188253104 7 6809 29 8753 30 7037 27 5551 26 7253 35 5653 23 8668 24 8806 25 11103
1548 -2.20955455419716 -1.462599646789871 4.7347348358847832 193 190 181 0.40086160698306639 28 6134 29 8770 30 8546 24 6054
1549 -2.1209884430886716 -1.4734657835435112 4.7466407659568706 216 216 208 1.7496968753079609 7 8246 29 8771 30 8548 26 6125 34 9112 28 4188 27 3911 22 4840 24 918 25 6732 6 225 18 506 41 672
1550 -2.1216661521492588 -1.4737886812173742 4.7467139486771011 216 216 208 1.5259348648170536 7 8245 29 8772 26 6126 28 4189 22 4841 23 6038 25 6733 5 928 18 505 6 226 41 671 27 3912
1551 -1.9651756636114495 -1.4782980884364669 4.7548906567444398 214 213 208 1.4984023674414022 7 9090 29 8774 30 9417 27 5650 26 6129 23 8777
1552 -1.8283641954247083 -1.5332547255581459 4.7238271597342534 180 179 175 1.266508671612089 28 7300 29 8777 30 9419 27 5651
1553 -0.95306144762009892 -1.5869073501120952 4.6745053109087191 111 109 110 1.1492176645800209 29 8779 30 8574 27 5621 35 6840 22 6898 5 7062 24 8866 19 4092 41 4176 3 997
1554 0.05824881314589013 -1.6320308871252192 4.6118556493175724 195 195 187 1.3285396162142877 28 6054 29 8780 27 5624 35 5724 36 6715 31 7665 23 8724 24 8875
1555 1.3523809012752497 -1.8121434731949693 4.5252319742014775 161 158 151 1.7851359149154122 28 7258 29 8783 36 5583 31 6265 22 6859 23 8672 8 4014 9 4560 3 3833
1558 -0.92402741342768779 -1.5496946978520523 4.6779850651433463 127 125 126 1.0264282647409166 7 8254 29 8804 30 8575 27 5658 35 6856 31 7651 22 6899 24 8942 25 9487 5 7063 18 3954 6 4526 19 4094 4 843 3 999 2 824 37 802 41 464
1559 -0.83171826481457289 -1.5292835690343423 4.6721346171440157 197 196 191 1.1685503093441911 28 7309 29 8805 30 8576 27 5659 26 6137 34 10986 24 8944 25 9490 5 7064 18 3955 6 7008 3 1001 2 826
1560 -0.49492652018787514 -1.562795380267674 4.6642785568368499 151 149 149 1.5254860997493431 28 7313 29 8807 27 6676 26 7278 35 6845 36 7446 31 7654 23 8794 24 10409 25 12200 5 9205 8 7455
1561 0.040641388292267239 -1.5874724716940185 4.6269049423013939 182 174 175 1.897350004722437 28 7314 29 8808 27 5625 26 7279 31 6257 9 8680 22 6909 23 8796 5 8322
1562 0.86650187527086442 -1.6021436791281773 4.5578965210740945 243 242 237 2.0505766663386851 28 7319 29 8813 27 6680 26 7283 36 6733 29 9711 24 10377 8 7483 4 6620 31 7682
1564 1.4822601596225971 -1.7048427228957945 4.5286034524745507 175 172 167 1.5223996114721328 7 6901 28 7280 29 8817 26 6069 31 4157 9 4639 22 4648 23 8737 24 8894 4 5556 3 3838 2 3533
1565 -2.4092472820631512 -1.2640425734485803 4.7842605563721561 200 201 193 0.68511772631401791 28 6239 29 8824 27 5759 26 6221 22 4970 23 6361 25 6911
1566 -0.87772678047288721 -1.4268262209948677 4.6840237455163782 170 169 166 0.81425598203666982 28 6143 29 8826 30 8591 27 5706 26 6187 35 6869 31 7659 34 9228 22 4867 24 8943 25 9586
1567 -0.17328364444821276 -1.4204515347266908 4.6418332855531439 138 130 127 1.5393314378083263 28 7335 29 8833 30 9442 27 6696 26 7318 31 7679 34 11039 23 8855 24 10413 8 8353 3 4060 5 8379
1568 -0.12912824995249023 -1.4092072790166688 4.6397141084125515 198 194 185 1.0819323453587546 28 7336 29 8834 30 7164 34 11042 8 6152 18 3962 6 7010 19 4184 4 852 41 482 3 1012 2 986 59 11584 42 9704 38 318
1569 0.63635054148026726 -1.5126402206872651 4.584406050934291 238 238 231 1.7849641708411141 29 8836 26 6153 35 5784 31 6329 34 9146 36 3845 9 7122 23 974 24 1022 8 6161 4 3844 25 684
1570 -2.2061761010851284 -1.212342109567359 4.6991951557917648 244 240 237 0.68822501528336621 28 7380 29 8850 22 8143
1571 -2.0109355404765261 -1.2573111428549686 4.765954501675191 214 213 208 0.89420157334817763 7 9127 29 8852 30 9432 22 7012 23 8915 24 9005 25 6915
1572 -1.8806186276338994 -1.2659099331972772 4.7516890838104606 201 200 195 0.29927220976124574 28 7381 29 8853 34 11090
1573 -1.8040286850037668 -1.1959023409137766 4.7428391124479505 214 213 208 1.5079482029736908 7 9128 28 6245 29 8854
1574 -1.5703587821858358 -1.2297349221475831 4.7428483784220505 212 207 201 1.1923012084802831 7 8332 28 7384 29 8855 30 8602 26 6224 35 6937 34 11092 9 10418 22 7014 23 8920 25 9774 6 4841 63 10783 59 10795
1575 -1.2968740055859702 -1.2343537815360006 4.7295947276919463 223 220 213 0.9659881522681163 7 8335 29 8856 35 6940 24 9092 6 7139 17 7050 41 4411
1576 -0.77996182046075568 -1.290511054360715 4.6928741332392505 252 252 247 1.7495117333876256 7 8339 29 8858 22 7018 25 11306 8 8350
1577 -0.77905291581630198 -1.2911162362913688 4.694255718523844 252 252 247 1.7468911162355585 7 8338 29 8859 22 7019 25 11305 8 8349 23 10344
1578 -0.46768862505847991 -1.3759526131035573 4.6587460299066663 231 226 220 1.9417830203114612 7 8304 29 8861 30 8610 35 6872 31 8398 9 8696 8 7463 18 6100 19 4182 4 3989 2 3799
1579 -0.39909041178338117 -1.2933799285736038 4.6636647769602417 91 83 80 1.043923242115137 28 6202 29 8862 22 7024 18 521 17 4631 63 10809 59 9219 61 10350 62 10533 60 10444 53 9566 58 6594 42 1294 43 5159 44 995 47 857 48 1157
1580 0.40930180550071921 -1.384872742824065 4.612647943225161 239 239 231 0.64512008887180905 28 7356 29 8867 27 6716 26 7321 35 6880 36 7474 31 6391 9 7186 22 8094 23 10309 24 10456 25 12225 8 6196 18 6051
1581 0.50427968807680812 -1.4390018334727244 4.6082524135955287 221 218 213 1.4309777546375599 7 9114 29 8868 27 6699 26 7301 35 6860 36 6778 34 12087 23 8864 25 11198 18 7260 4 5655 41 7297 2 5401
1582 0.63609450771385001 -1.3931799142510874 4.5993625825876858 202 198 189 1.220129889730768 28 7359 29 8869 30 7206 27 6718 26 7322 35 5826 36 6779 31 6392 34 11048 9 7191 23 8865 24 10458 25 11199 8 4095 18 6055 19 6220 4 3911 41 4189 2 3808
1583 0.63761507857770394 -1.3685249783411075 4.6041165651554961 227 224 217 1.052096810664813 28 6211 29 8870 27 5716 35 5828 30 4974 31 4290 34 11049 9 4769 22 6983 23 8866 24 9036 5 8346 8 4097 3 1024 2 1016
1584 0.72132844511445993 -1.4020290861012077 4.5936401904196673 252 251 240 1.2435145023256169 28 7360 29 8871 30 7207 35 5829 36 6782 31 6393 9 7192 8 4099 18 6056 4 3913 41 6158 3 4068 2 3716 37 714 38 4014
1585 -2.3535872567844329 -1.1269262842925103 4.8008201055058048 124 121 86 0.88907418969144969 28 7440 29 8886 30 9441 27 5865 26 6320 34 11159 22 7106 23 9044 25 7055
1586 -2.1777248226622334 -1.1377353780721513 4.7768118114744826 157 158 152 0.82357797597208116 28 6330 29 8887 30 9448
1587 -1.567273079749548 -1.1407875695898522 4.749785709590391 223 220 213 1.9296451252253266 7 8378 29 8889 30 8623 35 5990 34 9437 9 9792 22 5173 23 6378 24 6421 25 6920 18 4266 5 5187 6 7164 16 6506 27 5868
1588 -0.73601137995272925 -1.2619998401707888 4.7032046559140142 209 206 201 0.4757135904800463 7 8340 29 8892 35 6898
1589 -0.73601137995272925 -1.2619998401707888 4.7032046559140142 209 206 201 0.4757135904800463 7 8341 29 8893 35 6899
1590 -0.60456525986699283 -1.1914702230679317 4.6959560116003241 252 249 244 1.7969463427940324 28 7386 29 8896 30 8637 27 5772 35 6944 36 7508 31 8413 7 7111 23 8923 24 9098 8 7488 62 11378 60 11416 58 10609 46 5189 47 5523 48 5319 57 5542 49 5356
1591 -0.55170434117568057 -1.171810869629843 4.6853210662750682 203 200 195 0.90246823348951133 28 7391 29 8903 27 6787 31 8414 23 8924
1592 -0.31278772263229865 -1.22628854099937 4.664398207027963 95 89 83 1.0700609893698145 28 6258 29 8908 27 5781 26 6239 34 11103 24 10496 5 7187 6 7103 18 6162 19 4284 4 1032 17 7005 41 4380 3 4263 2 3894 63 11667 59 10846 61 11183 62 10542 60 10528 53 10369 58 9173 42 7021 43 5173 44 4701 46 557 45 745 47 5535 48 5324 56 6431 49 5362 55 1276
1593 -0.19366937941928042 -1.25405544344104 4.6574150877377321 210 209 204 1.5491562739051197 28 7395 29 8911 30 7248 27 6746 35 6909 34 11108 22 7031 23 8939 24 10449 25 11315 5 7183 18 4138 19 459 17 4642 41 604 2 1158 43 7319 46 5088 45 5082 57 5548
1594 -0.19373807735308257 -1.2540485715514116 4.6573643266197706 210 209 204 1.5464025257328879 28 7396 29 8912 30 7249 27 6747 35 6910 34 11109 22 7032 23 8940 24 10450 25 11316 5 7184 18 4139 19 460 17 4643 41 605 2 1159 46 5089 45 5083 56 6434 57 5549
1596 0.1223855729483117 -1.2405509940731112 4.6447372805993217 187 178 166 1.6164187190800638 28 7398 29 8917 30 8650 27 6751 26 7357 35 6911 36 6825 31 7748 34 11116 30 7266 23 8953 24 10500 8 6238 6 7111 56 1047 57 1114
1597 0.74021216352086161 -1.3349603003193888 4.5986611333852778 251 253 240 1.5464436275354356 28 7363 29 8930 30 7283 27 5717 26 6196 26 7323 35 5830 36 6842 31 6398 34 11136 9 7243 22 8095 24 9039 25 11241 23 10312 8 6252 18 7263 5 9210 19 7466 4 5709 41 7323 3 4069 2 3809 59 10826 61 11162 62 11327 53 10299 58 9103 42 6955 43 5055 44 4736 46 5110 45 592 47 5408 48 971 56 6456 50 6416 49 5301 37 6026 38 7142
1598 0.73684366448202554 -1.3023695251703749 4.5999470914523606 111 104 94 1.4095993088234147 28 8068 29 8931 30 8658 27 6720 26 7361 35 6883 36 6843 31 7751 34 12116 9 8794 22 8119 23 10313 24 10461 25 12227 5 9236 8 6253 18 7286 6 8397 19 7494 4 5710 41 7324 3 4168 2 5462 59 11604 63 12190 61 11621 62 11796 53 10811 58 11394 42 11148 43 8468 44 6666 46 7309 45 5003 47 7625 48 7332 56 9080 57 7761 50 8878 49 7686 55 4230 37 6028 38 7156 1 1487
1599 0.86475309273700351 -1.2743014084706503 4.5947535559085626 118 103 97 1.2806626812368318 28 7414 29 8933 30 7340 27 6756 26 6280 35 5911 36 5783 31 4371 34 11139 9 7245 22 7059 23 8981 24 10463 25 11244 5 8389 8 4168 18 7289 6 8399 19 6285 4 5713 3 4170 59 10866 61 11209 62 10578 60 11400 53 10301 52 11779 42 6957 43 5058 44 4739 45 598 47 5410 48 973 56 1068 57 5576 55 1120
1600 0.9047368219542069 -1.2686032888464702 4.5944294148399836 235 234 225 0.86553435916998189 28 8090 29 8934 30 7343 27 6757 26 7364 35 6921 36 6845 31 6471 34 12120 9 4866 22 8121 23 10360 24 11330 8 4169
1601 1.0823296091059025 -1.3649548345906262 4.5766177492321845 212 209 200 1.0354789783196461 28 7364 29 8936 30 7288 27 6724 35 6885 31 6474 34 11052 9 4869 25 12203 5 9213 8 4171 18 7265 4 5659 3 4070 48 7335
1602 1.5430369426098938 -1.3466907898300162 4.5545729512398774 224 222 210 1.6629144784960967 7 8371 28 7365 29 8938 30 7350 27 6726 26 7330 35 5833 36 5792 31 4378 34 11144 22 6989 23 8873 24 10471 5 9678 8 4177 4 5660 41 7977 3 5883 2 5408
1603 1.6117753130795789 -1.3754428351148511 4.5495802282089022 242 240 234 1.5891788769852926 7 8320 29 8940 30 7293 27 6728 26 7332 35 6891 36 6788 34 12093 23 8872 24 10470 4 6646 41 7979 3 5884 2 3723
1604 -0.51731309482972443 -1.1627517903888316 4.6811278273173995 188 187 185 0.37551285567841203 28 7445 29 8962 36 7512
1605 -0.51934729369610233 -1.1656234058198318 4.6855920914041249 188 187 185 1.6317028807443206 7 8383 29 8963 9 9815 24 9103 5 8489 18 4217
1606 -0.50719907191929958 -1.1291283109343515 4.6969734386086772 202 198 197 0.97405533943757427 28 6338 29 8964 26 6330 35 5953 36 6864 34 11169
1607 -0.38979988952088424 -1.1723943821962324 4.6783710891118711 184 180 176 1.8788929568939248 28 6340 29 8965 30 8645 27 5873 26 6332 35 6948 36 7513 31 7742 34 9449 22 5181 22 7124 23 8934 24 9108 25 9784 18 4219 19 4368 4 1030 17 4725 9 8781 3 1337 2 1162
1609 1.2094839106761683 -1.2381383445024161 4.5791599794915223 253 253 246 1.3231929251378716 28 7417 29 8981 30 7349 27 6763 35 5919 31 6506 34 11141 9 7294 22 7066 23 8993 23 8994 22 7065 24 10513 25 12230 5 9239 8 4221 18 7292 19 7499 41 7329 41 7330 3 4178 2 3816 59 11638 61 11213 53 10813 58 10575 52 12294 60 11406 42 9791 43 8475 44 6675 46 7313 45 5008 47 7633 48 7409 56 9140 50 8886 49 7696 55 4331 37 6032 37 6033 4 4013 1 1495
1610 1.3466387576739802 -1.2160097142757988 4.5718308046695046 110 98 92 1.6099469049881883 28 7418 29 8983 30 5102 7 4973 26 6299 35 5923 36 5838 31 4444 34 11200 22 7069 23 10365 24 10515 25 12231 5 9704 8 630 18 7296 19 7502 4 5722 41 7333 3 5939 2 5464 37 6040
1611 1.4463620953841796 -1.2613893923807307 4.5654099573310232 230 227 212 1.6955928599400323 7 7091 28 8094 29 8984 30 7352 26 7370 35 6928 31 6508 34 12129 9 4940 22 8128 23 10368 24 10519 5 9690 8 4226 18 7267 19 7468 4 5661 41 7300 3 4074 2 3822
1612 1.4451930310433152 -1.2594270799947083 4.5644356450265979 230 227 212 1.1432100810425632 7 7092 29 8985 30 7351 28 8093 26 7371 35 6927 36 6849 31 6507 34 12130 9 4941 22 8127 23 10367 24 10520 8 4225
1613 1.4146734292712995 -1.2172533522606663 4.564161217324755 112 100 92 1.2214796892840234 28 7424 29 8989 26 7369 36 5842 8 632
1614 -0.43449951665886949 -1.0604954711416041 4.7823202611425177 51 66 56 1.828093877072051 7 8416 29 9002 30 8699 31 7771 8 7547
1615 0.55834280656584201 -1.0950904836136368 4.9275056377906097 46 60 49 1.5201647173601902 7 8419 29 9003 30 8700 34 11229
1616 0.91535105321855204 -1.1470288654644454 4.6042036670320359 190 183 177 1.7691557441709598 28 7450 29 9004 30 7379 27 6799 26 7398 36 5827 34 11192 9 7289 24 9147 4 5775
1617 0.95530676356497057 -1.1530615995782592 4.6051642050369841 182 179 172 1.8329360019690109 29 9005 30 8701 27 6800 26 7397 35 5969 31 7777 34 11196 9 8825 23 8989 24 10511 8 6280 6 8438 28 7451 4 4116 3 4177 2 3919
1618 1.0009910578239307 -1.1563077911654951 4.6025226439424625 191 184 176 1.3661625291908315 28 6352 29 9006 30 7380 27 5828 26 6349 35 5970 36 5829 31 6505 34 11197 9 7290 22 7139 24 9154 25 11338 8 6281 18 7323 19 6355 2 3920
1619 1.367893821232318 -1.1456354427863027 4.5861653859992213 184 184 172 1.7143588443168496 7 8402 28 7453 29 9008 30 7384 26 7407 35 6963 36 6884 31 6545 34 12174 22 8161 23 10371 24 10518 25 12267 18 7301 19 7505
1620 1.4330549990850314 -1.1511697048623104 4.5783388217094032 179 176 167 1.1970411070069098 28 7455 29 9009 30 7386 26 7408 35 5931 36 5844 31 6547 34 11202 22 7074 23 9005 25 11344 5 9244 18 7303 6 8444 19 7509 4 5729 37 6046 41 7350
1621 1.6078862363288648 -1.1865604507872216 4.5628096826364564 253 253 241 1.3757977639155872 7 7136 28 7427 29 9010 30 7387 27 6767 26 7374 35 5934 36 5845 31 4454 34 12176 9 4995 22 8133 23 10373 8 4288 19 8274 18 7982 4 6722 3 5943
1622 1.6818465781927929 -1.1683675498736663 4.5592759211626923 192 188 179 1.7047684318596608 7 8403 29 9011 30 7388 27 6770 26 7411 35 6929 36 6885 31 6550 34 12178 24 10527 5 9705 19 8275
1623 1.6505436000013753 -1.1484599037123939 4.5663269827976682 185 184 174 1.7895105875688906 29 9013 30 7390 27 6769 26 7409 35 5935 36 5846 31 4512 34 11205 9 4996 22 7078 23 9011 24 10529 8 4289 32 4400 7 7138 18 7306 6 9281 19 7513 4 5734 41 7339 2 5514
1624 1.6715099241174143 -1.1165636158195698 4.5849693517078958 214 212 200 1.4754855412326624 29 9014 27 5890 7 7162 26 7412 31 4514 22 8165 23 10375 32 4402
1625 -1.8778066538363352 -0.37425593081821318 3.9816875356165444 196 221 59 1.8738273856064172 7 9228 28 7536 29 9086 27 6868 22 7230
1628 -2.8082056495292034 -0.26450068447701824 4.8135427329536267 176 199 55 0.58496871615368828 7 9269 29 9106
1629 -1.9040193768190499 -0.23727954749519883 3.8859828732582544 31 52 4 1.713191323251843 28 4821 29 9111 27 6044 26 4806 35 7687 22 7282
1630 -3.2787295195400552 -0.13405469784255411 4.5076404477922143 7 10 0 1.7487182655217139 28 6560 29 9129 27 6111 23 6868 24 2054
1631 -2.9948077684029952 -0.15953132727431768 4.4838741427840123 6 8 1 2.1441017178994461 28 4899 27 4561 34 9905
1632 -2.9090079708589358 -0.14841283217837348 4.4877066847793188 0 4 0 1.4955453224587605 29 9133 27 6066 26 6543 34 12302 25 7418
1633 -2.8648503365243068 -0.16435846106750682 4.4960403841676442 9 14 0 1.5736162605682 28 7586 29 9134 27 6067 26 7530 34 11400
1634 -2.7983515723483299 -0.14591813031719295 4.553404853385973 0 1 0 1.8421502932474689 28 6564 29 9135 26 6546
1635 -2.7983515723483299 -0.14591813031719295 4.553404853385973 0 1 0 1.8421502932474689 28 6565 29 9136 26 6547
1636 -2.1318335534892454 -0.15359460905901934 4.0216772079372731 126 151 28 1.2148344109695908 28 6573 29 9139 27 6072 26 6551 22 5574 23 6886
1637 -2.0640353572048236 -0.1941516203916252 3.9408094215848659 162 195 58 1.1926739632288095 7 9277 28 6526 29 9140 27 6073 26 4801 34 9847 22 5573 23 6888
1638 -1.9362093175453683 -0.15297526165448885 3.8735417484643619 9 22 5 1.0546591804607421 7 9309 29 9141 27 6076 28 7593 26 6554 35 7697 34 11415 22 8284 23 9271
1639 -1.8543824704226397 -0.17833286825978228 3.855011963632208 19 31 8 2.079763364715113 7 9279 28 6579 29 9143 27 6078 26 6556 23 6897 24 2101 25 2505 22 7376 59 6843 62 9410 60 9211 58 2161 43 1510 48 1661 56 1780 50 2094 51 8640
1640 -1.8569026376727849 -0.17618392831407417 3.8368112860289156 19 31 8 1.9024243922074007 7 9280 29 9144 30 9588 27 6079 51 8639
1641 -1.3345904889732036 -0.19653526605075972 4.4225085494557197 48 40 2 2.1888884971614559 28 7600 27 6920 26 7537 35 7690 22 8295 23 10507 24 10682 25 11570 53 10939 44 5035 46 1026 62 11493 61 11717 56 1795 48 5594 47 5779 50 2110 49 5792 51 5924
1642 -3.0432883754856066 -0.034030975803734931 4.600210639580224 32 25 17 1.1699834231766673 29 9179 27 4638 26 4947
1643 -2.0305177146487523 -0.1240080026362835 3.9249298579818426 102 129 15 1.0447177952085402 28 6574 29 9186 34 12307 22 5580
1644 -2.0467933611061113 -0.11072403143318092 3.9299082472026297 0 7 0 1.2948240909565183 28 6575 29 9187 27 6074 22 5577 23 6892
1645 -2.0463775331038447 -0.066083392555549417 3.938049383853222 0 7 0 1.0987818635737268 29 9188 30 9605 27 4653 26 4961 34 11412
1647 -1.5125620306193508 -0.14446041484574021 4.4230435412972495 20 23 3 1.8316952244842575 28 7599 29 9192 27 6919 26 6563 35 7699 34 11417 22 8291 23 9274
1648 -2.0991635214141886 -0.046191994096235069 3.9676733459698958 0 7 0 1.5725008914823335 29 9220 30 9625 34 11455 9 10581
1649 -1.9358220152401142 0.0029274126291768728 3.916922371879989 1 7 1 1.4269519235405117 7 9347 29 9225 34 9994 35 6287 26 4966 27 1862 28 4986
1651 1.5165733759736588 -0.085444920532800506 5.1746711037091098 15 35 32 1.7597379303903304 28 6656 29 9236 27 6106 35 6168 34 11427 33 3478
1652 -2.0318404479520438 0.02844238904520717 3.8603967448842371 19 34 3 0.85690201455223791 28 7640 29 9245 27 6147 26 6638
1653 -1.8293634428115375 0.083246214873115523 3.5244723951784005 92 75 57 1.0434371704462109 28 5062 29 9247 35 6314
1654 -1.2699637212563117 0.042107652144770781 3.8737331951389047 76 77 43 1.2415028175078782 7 8672 29 9252 34 10003
1655 -1.2273706861013678 0.039487983171849747 3.9018114969973969 237 221 188 1.5821941751904198 7 8673 29 9253 30 7784 31 6982 34 10004
1656 -1.927152270204173 0.092333545958580412 3.3760090639341072 147 127 102 2.3097071574729435 28 5056 29 9272 35 7249 27 4726 26 6639
1657 -1.921608339999678 0.10967233519620377 3.3060626702311571 111 94 80 1.1727207216668214 28 5104 29 9274 27 4778 26 5030 35 6346
1658 -1.6484444729601866 0.084916419995504103 3.535247341994542 24 34 2 1.324793439627441 29 9276 27 6155 26 6643 35 7229 28 6673 34 10053
1659 -2.1462694604948234 0.1416358810769118 2.904523674523916 159 159 157 1.8638138502570158 28 5100 29 9286 27 4775 34 7365
1660 -2.579251549938935 0.18008604320426497 2.5656775234274112 112 118 116 1.3200956655755816 28 2211 29 9307 26 2176
1661 -2.1068292166555391 0.18151909625785206 2.5573984469661144 191 185 173 1.2213319793966768 28 5152 29 9310 27 2147 26 2192
1662 -2.6024068531573814 0.18821148798747744 2.4731332790089988 246 239 223 0.98879353385446178 28 5143 29 9338 26 2175
1663 -2.1518215867297332 -1.5282602492513737 4.7400242902950058 204 203 198 1.0662874565462497 28 8035 29 9694 26 7949 22 8080 23 10274 24 10400
1664 -0.43345337500987463 -1.553430332784667 4.6564896741722652 146 142 143 1.5890331170590488 7 9094 28 8040 29 9707 30 9437 26 7299 35 7536 36 7447 31 8382 9 10412 24 10410 25 11195 5 8342 8 8343 57 5472
1665 0.8389844570543139 -1.6117668225114148 4.5740850860098465 209 206 199 1.2600666940339484 28 8042 29 9710 27 6679 26 7940 36 6732 30 7172 9 8701 25 12166 2 6307
1666 -1.410064612276974 -1.3310309640957771 4.7206586978101734 253 254 248 1.163896917418989 28 8062 29 9721 30 9932 34 12109 23 10303 24 10439 25 11304 5 8461 6 8485 19 6336 41 6305
1667 -1.3342430361110549 -1.3614226822572619 4.7193061996054961 214 214 204 1.350724496975779 28 8061 29 9723 34 12081 25 11302
1668 -1.492940671460854 -1.310575416151939 4.7967004068647876 255 255 247 1.6820833737234142 29 9731 26 7350 34 12107
1669 1.4663154002001766 -1.4418478493374647 4.545677320519359 228 225 216 1.264551050924585 7 9118 29 9734 35 7550 36 7476 31 7730 34 12776 8 7526
1670 -1.5092949701073175 -1.1397341802658414 4.7456156219701287 246 246 239 1.7213749862929213 7 9139 29 9741 30 9463 26 7385 35 7585 34 12155 23 10340 24 10490 6 8507
1671 -1.2970346844928493 -1.1532037955977188 4.7306982890873517 242 241 236 1.4640124772773886 7 9140 29 9742 30 9464 27 6786 26 7995 35 8004 9 10801 22 8145 23 10341 24 10491 25 11376 5 8509 3 4249
1672 1.3498656007391014 -1.3664423662937666 4.5626708528494042 159 149 141 1.7537413553538357 7 8315 28 8072 29 9751 30 8661 26 7966 34 12126 22 8103 24 11332 25 13239 3 5879
1673 1.3455849190418991 -1.3639539923373647 4.5568254071660261 159 149 141 1.4970633221451422 28 8073 29 9752 30 8662 26 7967 34 12127
1674 -1.2710347564843123 -1.1316129081456507 4.7813049080558008 167 161 138 0.66794111266568346 7 9141 29 9761 30 9465 34 12156
1675 -0.83560584229739643 -1.1439864246131752 4.7064303411952633 239 240 232 1.7217349198641727 7 9142 29 9764 30 9466 27 7362 26 7386 35 6943 34 12803 9 10442 24 10492 8 8361 31 8905
1676 -0.45128484350018599 -1.1258447941844791 4.8312103125806836 147 138 107 1.5686288607068974 29 9766 27 6790 26 7389 35 7586 36 7893 7 9650 34 12159
1677 -0.013334647321716964 -1.1879297392902879 4.6564505086201171 251 249 243 1.1697910953629707 28 8084 29 9768 30 8677 27 6749 26 7390 36 7516 31 8435 34 12162 9 8787 22 8115 23 10352 24 10498 25 12255 5 8470 8 7518 18 6167 6 8466 19 6346 4 4098 17 7010 3 4268 2 3898
1678 0.26976515109633986 -1.1605395831049778 4.6453068417626264 192 187 181 1.6958693178230229 7 8394 29 9770 30 8681 27 6794 26 7394 35 6957 36 7518 34 12164 9 8821 22 8151 23 10357 24 10506 25 12258 8 6247 4 4110 17 8376 3 4270 2 3913
1679 0.73984613752414652 -1.2226799273678353 4.606409187874168 111 102 95 1.6502702374128839 28 8089 29 9771 30 8684 27 7353 26 7363 35 6920 31 6469 34 12167 22 8120 23 11158 24 11355 25 12847 5 9258 8 6279 18 7981 6 9294 19 7496 4 5715 41 8007 3 5936 2 5507 63 12192 59 11635 61 11642 62 11810 60 11926 53 10831 58 11429 52 12595 42 11184 43 8525 44 6669 46 7310 45 7062 47 7626 48 7404 56 9136 57 5670 50 10100 49 7758 55 4325 37 6083 41 7346 38 7179 1 1489
1680 0.75088278469528369 -1.1554893958602261 4.6131556624359726 186 182 173 1.4729758685965348 28 8118 29 9772 30 9498 27 7367 26 8001 35 6959 31 7775 34 12168 9 9835 22 8155 23 10359 24 11356 25 12261 5 9259 8 7554 18 7995 6 9306 19 7532 19 7533 4 5773 3 5980 2 5508
1682 -1.5577484989718078 -0.99789753501809564 5.1111785250189863 169 174 170 0.30179596488236837 7 9656 29 9791
1683 0.6183314055034046 -1.126593433809876 4.6270664205667122 214 210 199 1.2473421972803764 29 9796 30 9497 27 7366 26 8000 35 7577 36 7520 25 12259 8 8399 18 7996 19 8284 4 6741 3 6959
1685 1.4090170190285218 -1.1149051686878095 4.5793611357789024 237 235 223 0.9235394984587102 29 9799 30 8705 26 8007 35 7580 36 7524 31 7791 34 12809 9 8841 8 7583
1686 1.5348728932204398 -1.1054523103716365 4.7742311761333056 118 112 88 1.583087232754399 28 8133 35 7581 34 12817 24 11383 45 8146
1687 -2.0648953919578394 -0.32895900762409847 3.9997863628675012 118 139 4 1.2560097445280363 28 7535 29 9854 26 7485 56 6736 57 5831 50 6720
1688 -1.8715302651243049 -0.25329882033789858 3.8652177153691252 175 202 70 1.2012503772090908 28 7564 29 9862 30 9566 27 6889 26 7505 23 10464 25 11508 33 6460 57 5834 51 10038
1689 -1.9903922577142288 -0.20800242801475807 3.8818041767752636 35 62 10 1.4323965806063568 28 7563 29 9870 27 6888 26 7504 34 11361 22 8283 23 9270
1690 -1.8760585860917416 -0.22423137291336978 3.8678927692706817 1 7 4 2.0697590221925046 7 9278 29 9871 30 9567 27 6891 26 6510 35 7696 28 7565
1691 -3.0749110120888719 -0.094068161411129447 4.6408436232665835 1 2 0 2.3977395280824561 29 9885 27 6934 26 7553
1692 -2.0055151384441774 -0.12966581035305544 3.8623259917015047 0 12 0 1.7040773668766303 7 9722 29 9889 30 10033 34 11411 9 10912 33 7118
1693 -1.8608293096450701 -0.062813737587286214 3.9011665361457211 14 34 4 1.7174936457910872 28 7624 29 9890 27 6946 26 7558 35 7710 23 9329 50 6814
1694 -1.8331212991495149 -0.010442000807541799 3.8626311779467697 0 9 0 1.0103155228871059 30 10059 35 7725 26 7560 27 6948 28 7625
1695 -1.8338837940138852 0.013864752879167658 3.8827539261259019 164 181 117 1.2598958545481702 28 7641 29 9915 27 6150 35 7206
1696 -1.796695241517273 0.0057417283254520219 3.856482185385544 110 123 29 2.0281625841709467 28 7626 29 9916 27 6949 26 7562 35 7727
1697 -1.4788725075810876 -0.027188665218741727 4.2546573205843323 155 158 76 1.7403665565687167 28 8208 29 9917 27 7489 26 8132
1698 -2.624802472396814 0.13065492719106633 2.7017093944846913 42 70 4 1.5170321595383249 28 7657 29 9953 27 6996 26 6665
1699 -2.8038343401135966 0.1826907376720934 2.4732844546634194 215 208 190 1.0957133621398867 28 5136 29 9978 27 4878 26 2164
1700 -1.974641446369015 0.19686398350277673 2.4278181203301301 207 179 142 2.0109760096374067 28 6786 29 9986 27 4831
1701 -2.8101990210903018 0.20624735455581797 2.3106646275223368 143 147 146 0.87923000700307785 28 5208 29 9995 27 4877
1702 -2.7707155945467923 0.20203339159860551 2.2997941882104924 149 154 148 1.2272819407525943 28 5210 29 9996 26 2301
1703 -2.7532221759153983 0.21471018683776655 2.1777641683725451 149 151 145 1.4033694924657898 28 5209 29 9997 27 4939
1704 -2.6940480996209266 0.21724088412751125 2.1545151452926641 217 206 186 0.84375006281723153 28 5211 29 10022 27 2322
1705 1.2640944018877311 -1.6134718229014922 4.547796486760431 244 239 233 1.5659850455738726 28 8448 29 10229 23 11109 24 11841 25 12772 3 7467 2 6308
1706 1.5087438039247296 -1.547620341968746 4.5511006170430912 127 126 122 2.0709910565267089 28 8043 29 10230 30 9943 26 7943 35 7958 36 7458 9 10432 31 7729 24 11870 8 7505
1707 1.606119898998978 -1.6150924764439751 4.5344318769855834 188 185 178 1.5767866123393901 29 10231 30 9456 26 8362 35 7538 22 8698 23 11665 8 7506 3 6833 4 7315 2 6309
1708 -0.72564175579353263 -1.3513978750475668 4.6713184341962419 254 253 249 1.2219765253331603 7 9625 29 10235 31 8882 9 10785
1709 -0.37696258675172284 -1.3461401317815973 4.6559969929944574 254 252 243 1.045702797661151 28 8463 29 10236 27 7744 31 9218 34 13204 24 11323
1710 -2.0262746794130502 -1.1383423923805989 4.924055007377345 136 133 101 1.8532384640137567 28 8489 29 10245 27 7359 26 7993 34 12801 22 8742 23 11172 25 12310 60 12206 48 8555 56 10444 57 9002 49 8934
1711 -1.2384171384586804 -1.1462987306534693 4.7274566951954569 217 216 211 0.77328991875348252 7 9640 29 10248 30 9949 35 8005
1712 -0.42453238139565014 -1.1842762829089466 4.6770731719214362 215 212 205 1.3686738758093486 7 9642 29 10249 30 9950 27 7364 26 7996 35 8006 31 8919 34 12804 22 8748 23 11153 24 11349 25 12881 5 9741 4 6740 3 6953 9 10444
