# 3D point list with one line of data per point:
#   POINT3D_ID, X, Y, Z, R, G, B, ERROR, TRACK[] as (IMAGE_ID, POINT2D_IDX)
# Number of points: 377, mean track length: 4.9968095288737633
5597 0.10667957169556808 -1.7806361776030004 5.7042703417786793 189 178 193 0.37410726413820522 63 9845 61 6474 54 8747
5600 2.2556829062711388 -0.19947751265397123 3.2545591443842858 113 100 94 2.1151736644333856 50 10679 51 11431 61 11332
5602 0.42419783416615353 -1.8894891652797858 5.6191715666460826 62 60 67 0.42805835908672352 50 760 52 735 61 6487 62 4
5603 0.043779975409670782 -1.2824335708296029 3.5900935547826274 94 84 93 0.28942784283248213 50 799 52 736
5606 0.55602749806837681 -1.4574974126576254 5.3116141612245737 10 7 9 0.22739677424102345 51 1230 64 6705 52 1202
5607 1.1945667019140418 -1.5086649283798974 5.7820934021354882 52 58 60 0.3578447184012522 50 1259 52 1219
5608 7.1115894058381377 -0.73576908967975463 3.8770506516620613 37 80 91 1.6569049634782094 54 1990 52 1481 62 607
5610 0.90645029572901081 -1.3372793427700722 5.8799668229691129 49 36 53 0.79514391118474892 50 1577 54 1763 52 1613 46 1845
5612 4.8966167301820649 -1.1493864607813242 6.6832902931139104 142 142 130 0.38320490363226051 50 6775 52 1724 42 1429 62 8486
5613 5.3399313055695092 -1.1202078305721244 6.5010983712464387 53 56 49 0.98013066800544468 44 1570 52 1734 54 6873
5614 6.005993168782493 -0.82983252119323625 4.7073987694269084 103 111 117 1.1975217241024998 56 9283 52 1804
5615 7.0317444117408572 -0.44579127902095234 3.2903214586866154 4 13 22 0.3361236463980759 54 9070 52 1902 62 645
5617 -0.048321089585047196 -1.0389502676452742 5.6445488530947676 62 65 83 0.10386152463043556 56 9470 64 1694 52 2004
5618 0.7010209618335278 -1.0715730391841267 5.9919278401653662 2 7 19 0.31982708383770836 50 2044 52 2011 49 2116
5620 3.1121849733379539 -0.57089542330061849 4.9407879053657222 10 16 5 0.26209103441555875 50 2198 52 2143 62 6489
5621 3.8775157297792866 -0.4502010279810752 4.3501179831651546 107 90 82 0.37065561737145442 63 8850 52 2211 62 1318
5623 3.9687754143857261 -0.17406881961405155 3.1387318706359109 17 21 16 0.52070900791088537 61 1405 52 2267 62 6536
5624 5.9695797478996608 0.19561075212907889 1.7109172626479747 109 88 83 0.5575332845948715 61 1088 52 2421 50 1966
5626 0.23312398090023326 -0.66365249699955042 5.3623529065084012 168 155 149 1.5721122454576384 59 1665 52 2497
5627 0.50225256033679222 -0.7637312611752165 5.9950774043253192 207 202 209 0.80970624165828531 56 3180 52 2509
5628 1.9031360274187696 -0.70901905365839624 5.6056683689078337 73 62 70 0.55700974232199452 59 7332 52 2533 62 1180
5629 2.2273833013178006 -0.091327233829380586 3.0706529045685964 82 80 65 0.50693968290823344 59 7695 52 2621 49 8416
5630 -0.20899235119639678 -0.34851606822393177 4.289832250926759 62 64 54 0.81234418150541576 54 7471 52 2835 53 3510 62 1902
5631 1.176693577200618 -0.2646080748233377 3.9335749558469599 56 60 46 0.22187246463823004 50 7267 52 2844 62 6682
5632 1.2833504634965385 -0.074951287653063567 2.9654654119565165 128 150 93 0.84058308051967001 51 6833 53 10329 52 2878
5633 1.1171218920148471 0.092160901341528739 2.4485272365717612 134 151 105 0.78122434528888629 51 6998 53 11609 52 2894 62 6859
5634 1.2895931923896784 0.03616143093733834 2.5892679497538595 90 107 57 0.76199297416548784 44 2302 50 2946 52 2912 62 6863
5635 1.3346076786060226 0.15622116479392115 2.2075989309922108 59 65 27 0.86084638494223764 56 11888 52 2941 62 1996
5636 0.18654689222915011 0.28740086271702964 1.9426582682097164 232 217 220 0.88935906602996762 53 11686 52 3295 62 7029
5637 1.055162787184909 0.33606809267889598 1.77845778180369 89 74 71 0.25660424963854672 54 9780 52 3335 62 2182
5639 0.46348542414636729 -1.9610687148007513 5.5607786804718717 150 144 156 0.10811210252082393 63 8141 52 5849
5640 0.34711390274956172 -1.869308073244303 5.6347215804124788 56 46 63 0.388978378028773 50 6227 52 5851 62 5743
5642 1.3492950220265509 -1.7956626616281732 5.3805615521590573 178 173 180 0.33513566537773076 50 840 52 5887
5643 3.3981599972760463 -2.9359316760609229 10.160317625292027 170 160 171 0.81593962297739475 50 6287 52 5908 62 129
5644 0.60492105864154111 -1.7267155321486352 5.5923541588027348 185 177 177 1.0543949052081725 50 801 53 6867 52 6089 34 7085 33 7937 30 1447
5646 -0.21102753889188552 -1.5328480587413051 5.8110714708686553 0 0 0 0.15792934377451393 47 4209 55 6336
5648 3.1047333826262919 -1.5284235038339922 5.1132836477685686 49 45 52 0.90454479148299771 40 5595 52 6131 38 4786
5649 4.0506545039769568 -1.385527744893325 5.4964030139686528 0 0 0 0.40801272389229226 54 1464 59 6889
5650 9.0828923007749012 -2.9705325783380427 12.033520191609057 29 13 7 0.6891795548703904 56 6665 52 6157 62 5831
5654 6.4264051226022909 -1.700829241179391 9.0882437429699969 54 66 56 0.41456494237181363 56 6854 52 6334
5655 0.48300633110262403 -1.0408409603227253 6.1002371829323598 80 82 103 0.69324322981555264 50 6981 52 6464 61 9901
5656 0.80690114628833476 -1.1763125243860844 5.7674047635063532 0 2 11 0.41782530928764033 54 9083 63 8753 52 6468
5657 1.7776309720595815 -0.87738949702872315 5.9128832157463398 86 58 40 0.52319678799927416 50 7019 52 6493 62 6447
5658 3.058793963540424 -0.57572075187458938 4.9474117743669748 9 10 4 0.74517517524727284 54 7121 52 6536 62 6488
5659 3.0696741183132823 -0.54150067452203332 4.9207233066724934 15 8 5 0.51036252310125352 50 7062 52 6537 62 6491
5660 3.2693639734569881 -0.4485903579354179 4.4040190154801122 95 105 76 0.4108735807585468 61 1333 52 6555 50 2218 62 6503 54 9341
5661 4.4387982523094234 -0.33445669623092023 3.7443690098132283 81 104 62 0.35319948866991896 41 5128 52 6595
5662 4.1237172645098372 -0.2865238931672609 3.1411471636168478 3 8 4 0.52826021339904961 61 7084 52 6600 62 6317
5663 4.1570559663643261 -0.15731153587306448 3.1967248092322071 17 23 21 0.37315519160119925 50 2311 54 7182 52 6607
5665 4.2603168015236896 -0.14602169258158942 2.844112702457716 57 65 52 0.93504944781559807 49 7987 59 10332 63 10350 52 6619
5666 5.7410966943800599 0.072097981270986322 2.301557114051314 93 113 67 0.44868937532396097 50 6911 61 7130 52 6648
5667 5.9795443117828873 0.081394940602347823 2.2065701178898722 4 6 0 0.47186313144534414 50 6915 52 6657 62 8562
5668 2.7464422653010274 -0.27017489301526881 4.2283115085051834 181 170 163 0.71895285507265361 51 8647 61 1336 52 6783 62 6730
5669 1.1400545603063574 -0.011423577744667932 2.8281176924106619 23 33 3 0.58283013926377147 53 11557 61 2075 52 6912
5670 1.5031715403605921 0.082626110988955129 2.3901775258847731 106 126 77 1.0562761101494582 44 2314 52 6941 54 10802
5671 -0.31013474289654591 -0.32898846497138856 4.1841376959539778 10 11 3 1.1096643991160509 56 11100 63 10496 52 7022
5672 -0.082725736294692612 0.22705236715830032 2.0646999900651406 156 144 143 0.69483481078198051 50 3390 52 7092 62 7024
5673 3.8803645753190712 -1.4741267321458675 3.6088000596010552 181 182 189 0.52278473932742375 49 9927 52 7938 54 8499
5674 0.50333311235136602 -1.7616131046615648 5.6254304845636147 46 30 50 0.46709794202841115 41 958 50 8754 59 11504 52 8161
5675 3.2144889295199497 -4.094275436997548 15.861544007127003 1 0 5 1.2834260622956746 57 5385 52 8183 61 9578 62 5994
5676 1.8256711427850403 -1.58582591905378 5.4166489745073498 73 64 67 0.83172000399354029 59 11540 60 5368 52 8199
5677 6.8629029123946061 -0.64965039532850566 3.6523131999944485 4 15 0 0.626239371411348 50 9051 61 9702 52 8284 54 10396
5678 0.78087553846263347 -2.2661911716731127 9.7235339920545485 44 62 66 1.0138303622783045 56 9187 63 10049 52 8314 53 9599 54 8936 55 10118 62 8443 51 6109 46 10356
5679 0.7403678122404751 -2.2975527845738779 9.8938154592165581 40 58 62 1.1450108401816319 53 9597 63 10050 52 8317 55 10117 56 9186 64 9549 51 6108 62 8441 54 8935 15 8469
5680 5.5073726387636945 -0.84945869239956717 5.0195344563642275 35 35 45 0.07815523112410136 49 11888 52 8401
5682 6.7437317754083104 -0.5196850065042381 3.5133411201079445 0 9 0 0.77848896610860752 50 9053 61 9704 52 8444 62 9691
5683 6.858520843937316 -0.48321186919995507 3.5059657624926635 103 117 105 0.25038759653382636 54 10399 52 8445 62 8423
5684 6.858520843937316 -0.48321186919995507 3.5059657624926635 103 117 105 0.25038759653382636 54 10398 52 8446 62 8422
5686 2.7763782355123534 -0.58031132125344953 4.6967064542074723 103 119 73 0.34657357795638416 44 6245 54 10548 52 8539
5687 2.904954600697534 -0.43413389735804658 4.379427414887652 49 53 30 0.6293288712470182 44 6344 54 10558 52 8549 62 8657
5688 3.2574871820266229 -0.48585516003473161 4.4187840958587206 19 28 11 0.76384049117833519 59 10289 52 8558 49 7897 46 8043
5689 3.2355944651552004 -0.31301300492353334 3.7881794302490759 34 44 15 0.5003958219100112 44 6354 52 8564 62 9861
5690 4.2033047058496384 -0.20968318891467363 3.0159501487670632 144 155 148 0.83335465101006323 50 9294 52 8591 62 9775
5691 4.2465512038939304 -0.21187491941406172 3.0506940114392052 144 155 148 0.27957328663794118 50 9293 52 8592 61 11250
5692 5.8368466460995272 0.049310297894914853 2.3410537417702484 18 22 0 0.16687315754200513 50 6910 52 8612 61 7129 62 8554
5693 1.1295315427193071 -0.66387704795488489 5.7602821254742116 130 116 105 0.8124543581525151 63 10384 52 8648 55 9125
5694 2.9553944109381272 -0.20190957768461504 3.5589203820985769 92 73 69 1.1044744096965202 54 10653 52 8675 62 8664 44 6356
5695 4.0580242044877393 0.12416335288165237 2.584415195399012 96 110 75 0.59800010140508852 50 7156 43 2040
5696 3.8525100424513212 0.14408881937029103 2.2710029042354298 17 21 6 0.41809952349526619 54 10685 52 8707 62 6577
5697 4.3403080234459308 0.56065538124019598 0.98037166348617311 124 124 134 0.40070350117142006 50 7436 52 8736
5698 3.0676173872438359 0.38462341522300564 1.6374639013355057 184 169 162 0.39277883236387717 50 9437 61 7590 43 2196
5699 2.889234598144951 0.41084493520683968 1.021411910497046 175 166 159 0.5639939473728619 52 8807 42 1901
5701 1.0147985666783306 0.09295234416346658 2.4770103231883702 119 135 90 0.61890669916122343 54 10790 52 8824 53 12441
5702 0.97997348950158625 0.14896462508376657 2.2960895419161398 102 89 73 1.0644186015927504 44 2301 52 8825 53 12491
5703 -0.022109828454123022 0.22286353347265783 2.057606002079253 108 92 92 0.61599062644470293 41 2121 52 8866 62 8978
5704 0.88749802707755265 0.34509044227016933 1.7627249209400486 68 57 65 0.50595270521862212 51 10220 54 10897 52 8887 43 2159
5705 -0.34249538821605541 0.28339116630157246 1.9949907959951911 233 228 243 2.0874695282778331 50 10837 51 7075 52 8925
5706 -0.34249538821605541 0.28339116630157246 1.9949907959951911 233 228 243 2.0874695282778331 50 10838 51 7074 52 8926
5707 0.28749823831709242 0.4336025943504011 1.3416415759077875 120 115 124 0.67203546904321387 51 9095 54 11690 52 8942
5708 3.6701126281730643 -1.9077598607572501 4.7388622561466418 177 176 185 1.7644966940327202 50 10125 52 9330 39 6508 35 14703
5709 1.848542949019768 -1.6847523396871344 5.3101976441427148 184 176 185 0.8927649902687963 50 10254 52 9419 37 1013
5710 0.16058308064223145 -1.7359414488546152 5.6966447502776001 64 55 72 0.90753950810834028 50 8921 52 9473 35 14466 34 7724 33 8683 13 9597 11 6812 8 11312 10 6906 9 6240 2 6587 1 922 5 6859 6 7006 36 5521
5711 0.28417571072251996 -1.7861713804156021 5.6548421566528839 48 38 52 0.66391444642040665 49 10030 61 9431 52 9477 41 950 47 4009 46 10188 38 1150 15 9685 35 14438 34 7695 33 8656 12 1171 32 9985 29 932 30 4919
5712 0.35076622050585476 -1.7022799235399071 5.66214534065137 172 170 181 0.49598769926942354 41 4741 55 10945 61 10988 52 9484 15 10602 32 11313 30 6491
5713 6.5556791501734972 -4.2766145245277203 16.792438235906808 0 0 0 0.10899319625868523 50 8947 53 11006
5714 4.9140726401602874 -3.0470977334929743 12.912579892617442 72 78 74 0.46724818598646578 48 12405 52 9509
5715 8.5538364707068819 -2.5702130753289665 10.745497105712504 0 0 0 1.2590595938155169 41 4889 50 10363 61 12034 49 11794 59 12516
5716 7.2510377442053544 -2.1352896269957502 8.7471262338656484 237 237 166 1.1126677014708131 54 10246 52 9529 44 1372 62 10426
5717 6.919070161164333 -0.57524543236853698 3.5669394886069683 11 21 13 0.7581709934006009 50 10390 52 9553 54 11896 61 12054
5718 0.49850935183428369 -0.60338860837671637 2.5981910705716302 81 92 92 0.66504197003154719 50 10431 52 9568
5719 4.3686660233417882 -1.8152294163103087 9.6180552354365894 0 0 0 1.3719991544724099 53 12148 54 11342 59 12653
5720 6.5989713135855013 -0.1950989740990324 2.799305284239852 32 34 8 0.5443569054047892 61 11263 52 9643 50 10496 62 9798
5721 0.73706147116292564 -1.1376059080870584 5.9967980348057859 65 110 131 1.7517396368927662 44 1516 54 10417 56 11570 64 12106 52 9658 63 11077 46 7922 43 1621 38 4907 34 7778 1 6629 32 11359 29 11192 30 6566 36 9978 31 10019 7 6899 23 8312 24 9292 25 1091 26 1404 27 1465 28 1642
5722 0.76044676186430271 -1.1613085576048674 5.9306917442928908 21 36 61 3.0641400883659053 46 10512 33 9155 29 9960
5724 1.947457832159931 -0.73496403927814569 5.287901752214986 161 84 76 1.5672645319139271 50 10571 52 9679 61 11316
5725 4.6915176045941136 -0.38562723925741726 4.000541658678177 6 10 0 0.29497942548241635 54 11449 52 9705 62 9770
5726 4.1703350013801455 -0.21797634965647791 2.8887299142264715 39 48 42 0.61974655475209528 49 12964 54 11454 52 9708 62 9777
5727 4.2644997648341212 -0.16693911820143933 2.7228097685119721 45 55 46 0.35870421093311999 50 11331 61 12111 52 9709 62 9780
5728 3.9822515483096352 -0.069863938569515865 2.5759046034862987 159 162 171 0.19150379986128108 61 9997 52 9713 62 10615
5729 5.5352132604000941 -0.037588840182919414 2.7918994466506963 33 48 16 0.18852419365783799 50 10622 52 9725 61 11259
5730 2.2348884233745996 -0.10440669689859686 3.1233793096028752 197 196 179 0.81687873604550965 54 11490 52 9804 62 9937 43 1855
5731 3.9037093680432942 0.11032450923233941 2.5495808793004948 96 107 75 0.62221356669279193 54 11501 52 9819
5732 1.7837677331226101 -0.053124217278210255 2.8815199875320499 79 97 45 0.44203795531655593 44 6431 52 9847 62 8783
5733 1.4949591483406237 0.12821599070719678 2.1772693310180329 106 125 70 0.62286385835978642 44 8868 52 9851
5735 2.8399664023451492 0.43602628165185986 1.3949667246743622 207 197 188 0.7816793896262646 54 12060 52 9868 62 10001 50 10759
5736 1.7262555280620933 0.39114162775117473 1.5940874864124019 104 81 99 0.83552491499908044 54 12071 52 9894 62 10034 43 2176
5737 11.528043019470296 0.92432786154642088 12.601161537557417 135 122 116 0.74698210499794371 50 10745 52 9897 61 11496
5738 0.021521419149283454 0.29019546923076855 1.9037957928803153 107 102 124 0.89301337577792084 44 8886 53 13324 54 12368 52 9963
5739 1.0987615752109865 -1.5131104676641154 5.6356376583631196 251 249 162 0.53242204204443055 45 8554 63 11983 52 10308 54 11870 56 12508 62 10988
5741 0.99459215072769924 -1.4587017982142223 5.8623300116130705 106 131 127 0.59844303935766485 40 7392 61 12015 52 10360 50 11238 48 13158 60 7203 57 7115 42 1245 38 4853
5742 2.5018500996012261 -0.89551984112142136 3.7540869809253552 104 106 92 0.71643880245728075 56 6861 52 10380
5743 4.8374331142841767 -0.90676143963035816 5.2667494070207423 28 36 37 1.4436411652664809 50 10461 52 10390 62 11033
5744 2.7246519722312743 -0.84446769851111425 5.3275092073767638 63 50 31 0.83280627188119027 54 11906 52 10436 62 10526 51 11369
5745 4.200834734947871 -0.30117250282655933 3.8992592695492849 44 55 25 0.58170953928572333 50 11407 61 12194 52 10449
5746 5.9215301719041111 -0.1293637694505467 3.1830778967600875 74 90 51 0.69659887313385305 61 11258 52 10466 62 10553
5747 0.39067283835715799 -0.92637013409171631 6.3287044702800657 27 29 24 0.61773219482543473 44 6216 52 10489 62 10637 53 12213 54 11412
5748 0.89621608830066468 -0.73486869956976186 6.1013871332692871 138 128 122 1.2422629685622106 41 6481 50 10661 52 10497 62 10644
5749 2.0558498380115586 -0.23505149596111827 3.518012681930148 197 192 176 0.78248438618204952 50 11452 61 12746 52 10505
5750 -0.10474602983826617 -0.45182441025331505 4.7076409186541186 78 77 65 0.87190756488975329 54 12012 52 10527 51 10871 53 12292 62 10686
5751 1.0729340720544704 -0.06463481557626273 3.1021866073003488 34 37 16 0.60648787400673543 54 12015 52 10531 43 5629 44 8840
5752 2.6485700230355298 0.19898610945051584 2.0144650849733639 112 125 69 0.95634358240923545 50 11464 52 10551 62 10670
5753 1.3815227765923361 0.3931025356150824 1.5371963157544535 125 117 130 0.99110288479872732 50 10810 52 10572 62 10719
5755 1.2088753865435866 0.38391723337608819 1.5110638307979125 119 111 124 1.5358679150176513 50 11512 61 12319 52 10595 62 10718 46 12977 51 10975
5756 3.0393413458614877 -1.8986653712772641 4.9008980188953402 94 92 105 1.4640029177357528 41 7609 50 11728 52 10774
5757 3.6535071634243579 -1.6361645905927178 3.9718374201359299 109 108 123 1.7466746091949581 50 11734 52 10779 42 6254
5758 0.43157725898482291 -1.8659622892090111 5.6052660003650114 112 99 114 0.76103486743193738 50 11760 52 10799 15 11329 35 15063 33 9344
5759 0.37144672873295315 -1.9000957754364376 5.7424958123041909 81 68 85 0.26068937816584803 63 11939 52 10801
5760 0.35270930077212065 -1.8121729677686467 5.620285633843185 159 153 156 1.6588614025214448 61 12547 52 10803 62 10951 56 12481 46 12608 35 14946 34 8295 33 9358
5761 5.9975500258610746 -1.2109801155392705 4.6482574879668759 110 117 123 0.50088833929467769 63 11975 52 10840 56 12499
5762 6.6462714183091354 -0.23932930563033369 2.1881326633127882 0 3 11 0.50905513871996799 50 11808 61 12622 52 10851 62 11304
5764 7.1107044622889788 -0.3950195651524086 3.5698304211869725 80 80 72 1.0505019791403547 61 12117 52 10887 54 11398 62 11008
5765 5.7621345612469348 -0.13760976880812262 2.6096864466819722 40 26 15 0.57938618059692637 61 12121 52 10891 62 11053
5766 6.3790269175000383 -0.28684361355940052 2.301639639403656 0 3 10 0.40481342870217163 52 10894 62 11303 31 11869
5767 6.8005417951929088 -0.28338923879810984 2.6167345660055283 126 140 140 0.42763825096402219 50 11806 61 12993 52 10895 62 11012
5768 6.2479830635024216 -0.19108103940883894 1.8729006092259852 12 20 32 1.1491340645469388 52 10898 62 11306 31 11870
5769 0.4922539515143266 -1.0140468689186677 6.0570689287333295 182 186 187 0.34920699096136154 50 11861 63 12065 52 10907
5770 1.4182308742119449 -0.98616782803690395 5.9446820557610751 199 199 197 0.55248522549174972 53 12857 63 11660 52 10915
5771 2.504047502091304 -0.93410228939467788 5.9283383425418021 40 37 39 0.69223916072057501 51 11368 64 13194 52 10919 63 11675
5772 2.2740284443438341 -0.75769500415469826 5.76201579979874 96 44 46 0.93768035566716235 50 11876 59 13662 46 13758
5773 3.6935453832627156 -0.29333422027237965 3.6167097239973733 50 61 33 1.1498059008044128 44 9259 52 10932 62 10603
5775 3.9325002478361748 -0.22632485426610377 3.1913349754950144 40 53 27 1.3871301255336832 61 12719 52 10936 62 11092
5776 3.7949669339147487 -0.12682213004083398 3.1818102745520465 49 66 32 0.94547383123435202 54 12295 52 10937 62 11093 46 13484 61 13051
5777 2.5469896523473516 0.022309532786706495 2.6765415238551258 99 114 68 0.82220379024852652 54 12499 52 10960 62 11121
5778 4.4850213177168845 0.48667963172589157 1.1412021390711915 118 109 103 0.2974616821047516 61 12257 52 10968 62 11134
5779 4.5451684146984626 0.49327991551416495 1.1116486896639242 132 123 116 0.40726456466185174 61 12781 52 10969 50 11953 62 11135
5780 4.682194640288901 0.50107989579447176 1.1161477284094761 120 112 101 0.92028802960157119 61 12782 52 10971 62 11136
5781 1.0284586904328847 -0.017398754237728787 2.9787102176429512 134 118 103 1.003217803697166 54 12515 52 10977 62 11386 43 8145
5782 1.5933065091224816 0.82052559555597959 -0.2329532748851714 125 123 134 1.0914015215607376 50 12005 61 12340 52 11019
5783 -0.22815088317356197 0.95417802121462836 2.5305339498208381 208 213 223 1.4783407791797583 50 12093 52 11065 62 11236
5784 3.475681694530119 -1.7261934234625989 3.8192014854402023 166 170 156 2.218336166389109 50 11681 52 11106 42 7518
5785 0.2768376919044509 -1.8185366087163661 4.9107052986944115 111 106 121 0.49072347582504827 50 12131 52 11123
5786 0.2768376919044509 -1.8185366087163661 4.9107052986944115 111 106 121 0.49072347582504827 50 12132 52 11124
5787 6.5233758202652048 -0.12080135197502588 1.6230511738914795 9 18 36 1.895924001421645 50 12197 61 13176 52 11156 62 11487
5788 5.9910913408729645 -0.88635832184515528 4.9656502526247444 10 15 9 1.8587192671347126 50 12404 52 11172 62 11485 42 7591
5789 6.1031485513579433 -0.75361754716651896 5.1160703391581119 28 37 24 0.95051956028506801 50 12217 54 12464 52 11175 61 13197 62 11328
5790 6.08099855773147 -0.71189180550976494 4.7366541814114145 5 10 6 0.52397039016570401 50 11842 52 11176 54 11920 61 12661 62 11329 46 13391
5791 6.032663212012058 -0.10408091868501028 2.6669726746214888 3 7 3 0.57968687736062607 50 12233 61 13024 52 11186 62 11524
5792 6.03266321201205 -0.10408091868500989 2.6669726746214839 3 7 3 0.57968687736063007 50 12232 61 13025 52 11187 62 11523
5793 0.63252120141417045 -1.0723461599118544 6.0547949599018391 56 56 68 1.7960445141591785 45 9102 52 11195 33 9647
5794 5.8806312797047342 0.013911787388445259 2.5255754150228999 67 85 43 1.0128382331314112 50 12235 61 13027 52 11217
5795 5.6640149043089751 0.19169963484930266 1.858445928952452 79 102 48 0.21881255346255815 61 13054 52 11219 62 11361
5796 5.1590294868707192 0.53431051292230414 1.0344765699411542 101 91 82 0.85370265004433576 50 11907 61 12735 52 11236 62 11363
5797 1.2518260573343249 -0.25494154737032704 3.8122947294558993 83 89 73 0.86357148349552182 44 9254 52 11237
5798 1.0392903426140565 -0.047646088483765295 3.1859912682385194 121 111 99 1.5334931531323786 54 12619 52 11238 43 8144
5799 1.2733668496690136 -0.14279246955851857 3.1164363683009557 125 142 87 0.78536003046597069 53 13602 54 12620 52 11239 62 11369
5800 1.4256322473670688 -0.15213165031553033 3.2315538184235848 119 140 84 0.56169917745879383 53 13603 54 12507 52 11240 62 11371
5802 1.1202307127454769 0.30314236565596464 1.7669256572399401 143 130 124 1.4416557917030965 50 12331 52 11257 61 13090 43 8565 51 11937 42 7277
5803 1.8722138040865126 0.34597056221906275 1.6506759025141311 136 121 116 1.45879798437349 54 12633 52 11265 62 11393
5804 1.8587627614871782 0.34564430440207172 1.6389689919803963 136 121 116 0.42292780159394405 54 12634 52 11266
5805 2.6590618948121159 0.69513106356484544 0.37766973409079657 128 125 136 1.0286916426228796 50 11494 52 11270 61 12294 62 11416
5806 2.6590618948121159 0.69513106356484544 0.37766973409079657 128 125 136 1.0286916426228796 50 11495 52 11271 61 12295 62 11415
5808 0.8587689280453904 0.2906726825553661 1.8372287072454003 136 124 124 0.43533261650021804 63 12636 52 11289 56 13151 62 11407
5809 0.88486960305470841 0.37890276502363679 1.4575863624233414 139 137 148 1.4490874673308582 44 9704 51 11811 52 11290 62 11425 43 8197
5812 7.1344951090942512 -0.38935123066239741 2.6219400263423682 23 77 88 0.57761538325689754 50 12411 52 11363
5813 6.0218505641481919 -0.015783278241006497 2.3210782825484575 0 5 0 0.70388560585153415 50 12440 61 13322 52 11384 50 12558 62 11635
5816 4.2095531904993706 -0.086349966260419478 3.1384376376934817 27 36 15 1.7468073503862331 56 13075 63 12535 52 11402
5817 5.8092616981439322 0.093419232749097997 2.1898193839150091 75 95 46 0.5279075266209321 50 12237 61 13029 52 11406 62 11525
5818 5.6084102919657051 0.15851730326376548 1.9276921555400772 62 88 41 0.56311192849200342 61 13053 52 11407 50 11900 62 11526
5819 5.8026303183784655 0.35620222173906929 1.4169856520144377 63 60 50 1.0460921954240301 50 12466 61 13230 52 11410 62 11541
5820 6.1885762681748409 0.35581656386389027 1.374999383952989 85 75 66 1.85928000207752 50 12269 61 13056 52 11411 62 11543
5821 2.6725629634490371 -0.51081524555745106 5.1181322288231668 59 63 46 0.96133842736231012 50 12452 51 12037 52 11419 61 13221 62 11534 43 8786
5822 2.2345558335295412 -0.15643413710256207 3.2425855695776038 191 189 178 1.6854156639004887 44 9691 50 12294 51 12055 54 12614 61 13078 52 11421 62 11558 43 8530 42 7218
5823 1.6728471291032856 0.81738456341943888 -0.16603530838400282 86 83 92 1.9664784964692568 50 12496 61 12833 62 11584 52 11451
5824 3.604067602235236 -1.4789456639428136 3.3060036482638937 83 92 71 0.65995025377372474 52 11460 42 8051
5825 0.33567326159872379 -1.9692336726134305 5.6606708222975888 159 151 162 1.9711009563429798 41 7851 52 11464 39 8465 42 7754
5826 3.2590739584703448 -1.1957574753731848 3.1187166147750438 154 154 162 2.4217126653159018 41 8237 52 11466 42 7961
5827 3.3854121831193558 -1.442735262910438 4.9524814212554773 0 0 0 1.4943983137020584 44 9636 45 9781
5828 6.832386597839327 -0.3910772168813787 2.7121598391812038 0 6 4 0.364000070164893 50 12547 61 13316 52 11492 62 11627
5829 6.9401479441912297 -0.40929245853912483 2.5020895796263956 34 112 125 0.34303815759390371 61 13317 52 11493 62 11628
5830 6.0278165149213256 0.1797838240096831 1.6713338573104333 11 16 9 1.4352881053465669 50 12441 61 13323 52 11511 62 11636
5831 5.6125731651807236 0.35325272604068647 1.5498071384966803 62 67 45 1.0333409653425176 50 12465 52 11512 62 11649
5832 -0.13268973558423081 -0.42347066228359098 4.7268591179671668 87 93 72 1.9333380281212984 52 11523 53 13710 62 11722 43 8784 15 11733 54 12763
5835 6.8401018461823559 -0.25267596295046474 2.1200879281384464 2 18 18 1.6552852251614822 50 12549 61 13382 52 11559
5836 1.2811474289272464 -1.0994539167387547 5.7921155421713131 44 45 46 0.98533341639020411 50 12554 51 12118 61 13319 52 11570 43 8919
5837 6.1398993015909751 0.24299480219771599 1.4618227828613093 10 13 6 1.2058100719249649 50 12559 61 13324 52 11582
5838 0.78346583112246748 0.10384625746206419 2.2784219647884685 124 136 92 1.169048638954217 50 12623 51 12140 52 11590 43 8942
5839 6.735763018371701 -0.20500968970701308 2.5789906936819542 102 102 110 1.1168357880404001 50 12655 61 13422 52 11612 62 11740
5840 0.78965712899994034 -1.0032933921393175 5.9249312845948756 51 61 66 2.3119374404518207 44 9813 53 13733 52 11614 62 11745 46 14176 41 8255 48 14256 49 14407 60 8270 64 13795 43 9013 37 8252
5841 3.5138680651866099 0.049748454465814398 2.2147964586213158 54 73 43 2.1943649424035292 52 11624 62 11752 42 8137
5843 3.9950430292548633 -1.6340231766630959 3.475336999180076 76 86 59 0.55197248341491378 50 12695 54 12810 52 11654
5844 6.8443491167322739 -0.4622288465206007 2.9875269315812081 127 130 134 1.7206305062732985 50 12697 52 11658 61 13457
5845 4.1612130484700049 -0.50384370521255617 4.5187276181928899 12 10 0 0.95514258092626592 50 12700 61 13461 52 11660 46 14268 42 8204
5846 1.531552914975354 -1.3335103162513178 5.8375706999795991 22 35 41 1.6277992322938182 50 12710 51 12241 53 13826 52 11669 62 11794
5847 0.96297951749001187 -1.7507337499664515 5.4927991071164728 175 166 182 0.63716418325254476 53 6888 55 5950 58 3763 60 230 59 6582 56 6384 52 771 64 9272 47 938 57 73 54 6376 51 1246 61 58 62 56 15 8246 35 12948 34 6007 33 6644 13 805 11 4030 10 853 9 4390 32 927 29 961 36 5549
5848 1.3769769489269987 -1.7076781743333929 5.400219759684755 152 150 154 0.70367736815503168 55 5968 47 949 54 1368 56 8927 50 847 52 800 48 6984 63 8314 15 5608 35 11215 34 4053 33 4345 13 819 10 864 11 810 32 942
5849 0.71961559827740107 -1.7243680154980872 5.5556480102516801 195 183 195 1.7753385946354192 53 6878 49 7039 55 5938 57 3407 56 8890 50 6249 56 10425 52 1197 52 6091 53 6877 47 925 46 7419 32 910
5850 1.3001772129229947 -1.7399204532860408 5.4071732347325288 48 37 51 1.2405477417231181 64 9283 58 3772 51 5862 61 6533 52 5881 57 90 56 6395 62 78 46 7172 11 4045 10 4094 9 4404 32 7229 12 979
5851 0.67746396229475292 -1.3776047469621564 5.9482327293883239 107 106 105 0.5188776205201493 64 6908 60 820 53 1935 57 3728 56 6789 52 6283 60 3851 63 8578 62 695
5852 0.23942614690656211 0.22292708172079592 2.0086112228095807 185 173 165 1.1321562146606636 54 12357 51 10205 44 8169 52 9916 59 13463 50 10790
5853 0.23733277932120855 0.24799161344114012 1.9765756179989409 92 82 82 0.72097213802422222 50 12323 53 13634 49 14149 54 12637 51 11799 52 11277 62 11422
5855 1.5760603925979262 -0.97955722465406914 6.2062624964175575 180 172 126 0.86975473857961172 48 10365 51 8434 52 9669 54 9272 62 8613
5856 1.1848617213616561 -0.26336411227518025 3.8983010788395527 23 34 21 1.0078469239485126 64 12319 53 11479 49 12158 51 8772 44 1949 52 9835 63 11765 54 12014 44 8038 62 6683
5857 3.2327970927036511 -1.4596277460592342 5.0447112512829149 36 36 38 1.7228835790398704 40 9474 57 8150 56 13100 49 14347 59 14193 54 12558 41 8247 50 12517 61 13296 52 11484 51 12099 44 9800 62 11603 46 14164 42 7793 42 7957 38 8376 37 8241 31 12486 39 8643
5859 1.0862855296594363 -1.256840123925846 5.9289975821641852 32 33 24 1.0280834625747926 40 9594 49 14399 44 9805 61 13418 52 11606 64 13789 58 9005 47 8744 48 14289 60 8296 53 13729 40 9593 57 8202 59 14201 41 8256 50 12650 62 11741 46 14172 43 9003 42 8061
5860 5.3179625308448397 -2.6087278963175087 10.552329066356938 8 2 4 0.69553306036739337 49 1484 52 1265 59 547
5861 5.2274743734893789 -1.7862485482381281 6.8796047674721352 15 2 0 0.62878362351098693 59 251 52 1303
5862 4.3858490211542689 -0.27030506629066031 3.8540261567247964 130 144 115 0.40778211640352635 54 7171 52 2251
5863 0.66873505173769254 -1.8457558568178876 5.5384983845033746 61 53 66 0.11061591996581173 63 8152 52 5853
5864 4.1156517493379789 -0.12615082731172822 3.1928915173785399 123 138 118 0.071993849083131722 54 9376 52 6611
5865 5.735293935687964 -0.62688663026789093 4.5898532463717041 47 55 31 0.59957763035372436 54 10486 52 8416 50 9147 61 11241 62 8517
5866 3.8771747281348445 -0.30904373073407754 3.8424476680629942 50 61 33 0.78090934834741588 52 10931 62 10604 42 7220 41 7701 54 11957
5867 5.0903033325905067 -0.64008016747903262 4.9984421803454113 62 65 34 0.38821969848650695 50 11838 52 10934 42 7174
5868 0.50322821197380829 0.663985576542656 0.32942734992922196 211 205 217 0.66848839570563801 61 12377 52 11312 62 11436
5869 0.28838965481481654 -1.710310627493584 5.6715954358667355 177 172 183 0.44509091708183024 59 82 63 5630 62 15
5870 2.1454085033881145 -4.1309781298022692 14.975679156832422 173 171 176 0.87770356777913872 49 1384 62 18
5873 0.73128196930147737 -1.8360681553344804 5.5520803477843081 78 70 81 0.58672749066361685 49 7038 62 33 46 837
5874 1.0118646515030185 -1.8198697427926078 5.4628547869211559 80 67 85 0.58073392310520122 57 67 58 217 62 50 47 618 15 5470 64 338 34 4044 13 653 32 921
5876 1.0969378642007581 -1.6747702443322123 5.4670175925558038 176 168 177 1.1378330912988455 48 1261 62 64 15 5602 35 7945 13 810 32 936
5878 3.3771248957684397 -3.0410595638383167 10.156777888971346 32 24 35 1.0278943685533439 50 845 52 817 62 115
5879 1.7527257439327628 -1.7314809188760547 5.2792191881464552 191 181 190 0.42199789546920874 64 6259 62 121
5880 1.7705970347196793 -1.7182820985017642 5.2971784824513977 182 174 187 1.1600570377077717 54 850 56 6412 64 9301 62 123 63 5459 33 4318 34 165 35 7793 11 837 9 1050 32 966 29 1002 36 553
5882 1.7694176693174251 -1.5488409698494576 5.2901954220143654 49 43 49 0.44355117740780647 50 1275 62 140
5883 2.850295793569559 -1.2287635190289732 4.0000990290039136 0 2 0 0.31505417478907721 57 173 62 167
5884 5.0559345556216044 -1.7731927608320197 6.8992963817726913 97 93 84 0.40181442810741752 63 560 62 176
5885 6.4541423376915583 -0.79905147053436765 4.8336524415228483 34 44 47 0.4268745285319645 49 1941 59 6946 63 8685 62 571
5886 6.4698252020568816 -0.74892819235889474 4.8309985128001003 148 152 152 0.79661373428792892 54 1930 62 574
5887 6.5602518590333698 -0.41924149461344651 3.5150135513636696 0 4 0 0.25656803621146412 61 1010 62 624 54 2372
5888 4.1472752429931479 -0.25123489745768462 2.9980285360615997 10 23 10 0.50919007139862571 52 2268 61 7092 62 906
5889 6.2038662953066064 0.15123350012706349 1.5626406037003588 38 49 9 0.42196675688286539 52 1984 61 1096 62 1071
5890 0.90111698478995017 -1.0607463998666571 5.8849519992869412 58 67 82 0.47158266506786578 63 1490 62 1127 56 2320 64 1731
5892 1.695441382263738 -0.92159089764109359 6.0435902462006377 0 0 0 1.1779432574728725 53 2699 59 7321 60 4047
5893 2.102177750556856 -0.69646368265854675 5.6734137544534802 0 0 0 0.65228567433631279 52 2534 56 7291
5895 1.6199011683139573 -0.68335198193355529 5.716831707437712 184 175 166 0.39541107014901899 59 1705 62 1600
5896 1.0002135643286625 0.12683801764680311 2.3941993832945005 125 126 89 0.38030581199003111 50 2940 52 3130 62 1963
5897 0.69226401033129159 -1.7515475603013393 5.5625681064080563 31 24 33 1.1724637397808977 49 10045 62 5760 58 5927 12 1177 30 1450 31 740 10 4073 11 4019
5898 0.85701924937539198 -1.7265568269435145 5.5428970412134113 182 173 181 1.0670821152616046 50 6261 62 5763 35 13885
5899 1.0794449554740828 -1.707107739541645 5.4852216087427372 190 187 190 0.73515525169672868 57 75 62 5777 33 6648
5901 1.7265882016896668 -1.7706317078776321 5.2567488327446688 197 196 201 0.25205511722636703 63 8176 62 5810
5902 1.7473729183768318 -1.7148308333099289 5.2936501215856095 46 38 52 0.33126529547094419 50 878 62 5812 10 731
5903 2.0087988267892722 -1.5909265148715184 5.2404104798238427 156 154 162 0.29089432200602361 63 8337 62 5820 46 1467 12 1207
5904 1.3177895330577731 -0.85161734274574574 2.5222129817983303 4 9 4 0.52227458531773663 59 238 62 5823
5905 2.7329498240282883 -1.4866652153291817 5.460167493554108 0 0 0 0.57520687514407798 50 6547 63 8346
5906 4.112780813596193 -1.4598961343112433 5.1025946344482795 9 7 0 0.31947746444903202 56 8973 62 5830
5907 0.67888361355720872 -1.5290114251602136 5.8974375830990864 29 28 23 0.049599928083754186 50 6512 62 5992
5908 0.67888361355720872 -1.5290114251602136 5.8974375830990864 29 28 23 0.049599928083754186 50 6513 62 5993
5909 1.3646667527987546 -1.4969846851478545 5.7362703084747331 40 54 59 0.56479501472157512 61 6754 62 6007 49 7346 50 1267 57 3739 59 6838
5910 5.5315276153181694 -0.9606851828338856 5.0619047590800479 48 61 61 0.47561802568795059 52 6360 63 10029 62 6087
5911 3.9715700139489707 -0.53575623301030506 4.2781319533183346 14 0 0 0.031155733077250232 56 9416 62 6293
5912 5.0510599411977619 -0.67864497003604773 5.0866776363545991 0 7 0 1.5742385378271917 50 1770 63 8851 62 6297 46 8063
5913 0.95975228851479299 -1.1097309526490011 5.9394302692600363 180 182 190 0.43891653623242488 59 7038 62 6428 50 2063 34 4563
5914 -0.11418888970448905 -0.27292025810010972 1.3742501695925831 0 0 0 1.0762760707392995 52 8495 59 1268
5915 4.1925982234798527 -0.11027098726893182 2.8114561770454114 32 43 43 1.0483978048226528 63 10351 62 6558
5916 0.67488935376856829 -0.75337500212688424 6.0451199604300037 115 109 108 0.50960600741932949 56 9621 61 7445 62 6665
5917 3.3208257204900136 0.43335156377833006 1.3450844493417076 182 173 164 0.27671608793810665 50 7413 62 6780 61 7596
5918 1.2518906436159496 -0.036152968310629648 2.8525393346113921 17 35 1 0.48955900837773852 44 2122 52 8760 62 6847
5919 0.95248921696487543 0.12362536081513549 2.337939222693834 123 122 86 0.58710934510854462 53 12446 54 10795 62 6855
5920 2.513603984649305 0.36741103006609299 1.5102099632494235 121 111 101 0.26243242633270653 50 7539 52 6977 62 6917
5921 1.4211403446494657 0.32172165732548197 1.726983663743308 181 166 161 0.45322358753813652 54 9736 62 6986
5922 0.17253445790553357 0.23178537514642328 2.0058728213183157 132 122 113 0.47786203636074193 54 9769 62 7028 53 10523 46 3788
5924 0.58103724495459319 -1.6879138003670295 5.5965862025330209 176 171 177 0.3858250642145527 56 10422 62 8186 12 1176
5925 1.3912814634398347 -1.6812939354694429 5.4002370565778319 64 56 71 0.49632199750927164 50 6294 62 8220 15 9761 35 13863 34 7044 51 8073 33 7888 13 5752 12 5350 32 10041 29 7107 36 8016
5926 0.92794810698426189 -1.5650780320719981 5.8011187634935313 140 149 146 1.6976857635851172 50 1249 62 8326
5927 -0.77705886101361898 0.18642513452658432 -1.6534944753969825 24 20 32 0.49425755391894122 52 6130 62 8340
5928 2.7992305652687826 -1.5043391996243258 5.4917688415934673 10 10 15 0.80238544405788625 61 6786 62 8352 43 1188
5930 8.1182782462955174 -1.3838124309907607 7.8034093214125102 6 13 19 0.010818784515814032 59 11632 62 8397
5931 6.0155063180954977 -0.79697088213280665 4.6808665001722813 1 6 10 0.89489480098417507 50 10473 61 11155 62 8401 54 11307 46 11809
5933 6.7780525758009862 -0.25791566569201424 2.8223875502814435 62 66 69 0.30726679956764374 50 6909 61 9860 62 8428
5934 4.2474134153264949 -0.16765432046425208 2.6492448924382659 32 36 35 0.55776124017073603 50 1848 52 8595 62 8525
5935 5.8544877129816069 -0.030886472652786233 2.7637232384908743 59 84 39 0.41785706989563681 52 9728 54 10610 62 8546
5936 5.8750948835371464 0.13653236101152802 1.7778004367846065 12 4 1 0.19324395857094545 50 9200 62 8572 61 9874
5937 0.58941144647265564 -1.1234221375200852 6.0728427171074113 78 134 141 0.49811643126092081 52 6463 59 11739 62 8602
5938 1.7924273993964162 -1.0574815954659573 6.2779949014400289 54 60 82 1.4160832305848736 51 8437 52 6489 57 5645 62 8616
5940 3.2578514927074145 -0.56455961297185175 4.7817837744705942 3 8 0 0.67096584687821181 63 10311 62 8652 46 8040 49 10506
5941 3.3214026481903205 -0.30194972539776571 3.6141682764058838 81 90 61 2.4588610201005836 45 8673 62 8665
5942 3.3594327406820796 -0.11342898604988635 3.2442206046607742 67 82 39 0.26404045414347815 54 10661 62 8672
5944 1.6712931096898807 -0.077694991477732261 2.9001548391662371 61 88 37 0.9918034392631766 54 11529 62 8776 44 6426
5945 1.8011021232474453 -0.053322981112002746 2.909595169160347 50 67 22 0.21667829201291869 44 6430 54 10732 62 8782
5946 3.0813574931632273 0.39853337134810951 1.3889469944456776 127 117 108 0.53493103513293272 50 7407 61 7591 62 8815
5947 1.0545751316561949 -0.045037868144913881 3.0722201695105098 123 111 97 1.0011268853222643 54 10717 62 8846
5948 1.1678660271256169 -0.089702405836355886 2.9957089981008092 56 74 35 0.3084012943497953 44 6420 54 11524 62 8849
5949 1.2934350802083814 0.16784280475332575 2.0857111068466634 90 80 66 1.9432661011044585 52 8830 54 11564 62 8876
5950 -0.23871742237437074 0.26134413189306605 2.0369607368903919 194 182 185 0.92881593198804568 53 13017 62 9028 44 6613
5952 0.66361127739054748 -1.7512218098599901 5.5693683389149662 189 182 188 0.87048953077045843 45 5658 62 9546 37 966 8 11325 11 6834 10 6915 9 7358 2 7707 1 3922 5 6791 29 9782 41 965 47 5820
5953 0.48695384559692717 -1.5935889426971015 5.923928452137436 147 155 139 0.73040809416052843 50 8930 56 11443 62 9623
5955 4.9340122584466499 -1.6709443546149056 6.6750369995243863 252 252 187 0.53284939431565004 54 10240 62 9650
5956 7.1534397794599993 -0.76343015361087507 3.8386926772420735 21 44 50 2.1967855864614108 52 8280 54 11316 62 9688
5957 6.8604609329563866 -0.61268935660597101 3.5644566608226471 34 68 65 1.0466171227412806 50 10389 54 11317 61 11171 62 9689
5959 5.348319983692428 -1.1227432736895728 6.58223913055346 116 116 93 0.91611462420777223 52 8383 54 11358 62 9755 43 1670 44 7947
5960 5.856650994492365 0.1118129241811512 1.8202900758834926 17 7 1 0.49686155011069938 50 10508 62 9809 61 9873
5961 2.790910090951173 -0.7335842058358446 5.0917524270208547 85 92 51 1.130285088622635 44 7991 51 9848 62 9851
5962 3.1200968466548531 -0.11643735431800038 3.0138668880340007 101 112 69 1.8165564949602437 44 8098 62 9867
5964 3.3565025321233866 0.2761974561205417 1.7988925593027698 40 37 22 0.42220824642398597 50 7401 52 8722 61 11454 62 9956
5965 3.3727987723804969 0.2755795427626872 1.8116544866661068 40 37 22 0.0939398854211283 61 11455 62 9957
5966 0.96993212248042249 0.066161583577549643 2.5613859876378422 104 122 74 0.689646237656376 54 12043 62 9973 44 8116 53 13305
5967 0.66849640185623338 0.2520162065849158 1.9089264813640976 201 188 179 0.65848275205814111 51 10213 52 9919 54 12076 62 10014
5968 1.4229333639024753 0.33464575520703366 1.7057183228704258 141 128 122 0.32560997268119551 54 12067 62 10027
5969 1.4813186557032569 0.3987107318714383 1.5545530554149563 123 122 130 0.92357028664634322 61 11558 62 10032 46 12177
5970 -0.15597827965954095 0.24282850522096927 2.0812910059181635 141 131 130 0.35166554865886557 50 10840 62 10053 8 12531
5971 0.26177810059650913 0.42979369929120081 1.3335121937633274 117 114 123 0.32258069750640833 52 9967 54 12376 62 10103
5972 -0.43842885374201646 0.89882612466099177 2.4891141258682681 127 119 142 0.46428570560451377 50 11623 62 10226 61 12420
5973 3.1281573403066458 -1.3928265478004935 4.9464833964935666 1 4 6 0.072753745377907214 54 11215 62 10421
5974 4.0400337762145471 -1.4787516092180801 4.9608595264666651 5 5 4 1.1788193167244647 41 7125 62 10423
5975 2.2772547483228522 -1.4743985580311578 5.5119155294695066 172 172 160 0.21333913957055706 49 12797 62 10471
5976 2.390146010695708 -1.519101913615071 5.5253614625848728 43 44 54 0.81057872753145732 56 12090 62 10474
5977 4.0925479976690671 -0.35423647972850403 3.1279510743971746 28 28 28 1.9150768094873367 49 13505 52 9706 62 10543 59 13637
5978 5.6101862530945112 -0.030231348423449128 2.7898194051518357 7 21 0 0.23070576246096008 61 12118 62 10555 50 11423
5979 6.1642767620183756 -0.084018515740328786 2.1809633898227796 109 112 104 0.6796053801404992 61 12675 62 10557 50 11852
5980 5.9417961048980477 0.1744563794909936 1.8678259569594315 32 32 24 0.45030888524349177 50 10509 61 12131 62 10561
5981 6.1638929061280825 0.14916494303976296 1.7576472249545836 1 4 1 0.60690156682971486 50 10512 61 11275 62 10562
5982 1.0180776647255876 -1.0646094205989081 6.0309687335302522 10 8 9 0.85332265273890739 64 12748 62 10571 63 11655
5983 4.3521020197345655 -0.30257259397892983 3.8390827756233454 17 33 6 0.48225845636522841 52 10451 54 11960 62 10608 46 11920 56 12238 63 11730 49 12003
5984 0.71706294482768407 -0.80542650717733966 6.0632570866861171 40 33 47 1.1199701462667071 61 12234 62 10640 36 9421 17 14831 26 1496 23 8417 24 1684
5985 0.95239021834618498 -0.80003140892744629 6.2798493548483911 179 178 186 0.27566890488861123 61 12236 62 10643
5987 2.0118286618632411 0.059729524686133476 2.4213106583707633 118 135 79 1.2274547321225064 44 9286 62 10663 43 5648
5988 1.5780185114470993 0.13943979158444758 2.1405893834860694 104 123 67 1.5351988665632181 44 9285 52 10542 62 10696 51 11483
5990 -0.57051355548258742 0.59214933340896114 0.61559282101552859 217 215 226 0.47646580847508252 50 10946 52 10694 62 10866
5991 0.71431988842195604 -1.7933631282394664 5.5549865105663896 171 169 171 0.26132164870828201 49 13387 62 10961
5992 5.4005815684687217 -0.067581656180654079 2.8491934116726654 22 32 8 0.96972815553071834 52 10470 61 12671 62 11050
5993 5.7686711268446969 -0.014895225133760768 2.6462959973219111 60 82 35 0.6418409581716239 50 11850 52 10473 62 11055
5994 6.445685948969393 -0.21312603016776702 2.7736420204637602 34 40 23 0.64028773400249905 50 11343 62 11056
5995 0.89836514809948897 -0.95620549169591607 5.9892547064031039 56 62 68 2.0314551893561261 52 10423 61 12696 62 11065
5997 3.7346092428108051 -0.072964997607249477 3.0372127194912149 81 98 56 0.72417687836203015 50 11413 61 12199 62 11094
5998 1.483606502406942 -0.20184593841170129 3.4608630186841101 51 71 46 1.0822076178606941 53 13601 54 12493 62 11117 44 9497
5999 4.2065674380612483 0.31586544131902966 1.666082862103748 66 65 49 0.1353679006402915 61 12212 62 11128 50 11428
6000 -0.21732438346120675 0.25549247433969091 2.0255770133688626 183 174 173 1.3680364945073633 44 9297 62 11169 54 12537
6001 1.6482252635733696 0.79468964090248351 -0.15720536576064512 125 124 132 1.2919096678552262 52 10625 61 12831 62 11176
6002 -0.29687753657146049 0.94980283202971294 2.5257796013953935 201 201 212 0.67989319127954362 61 12423 62 11230
6003 7.0490006938112941 -0.59552012719430303 3.5749057588343836 15 88 94 0.80051398761136872 54 12237 61 12616 62 11301
6004 6.3474163612520922 -0.22847482275737427 2.6269245694145247 125 129 130 2.1719636621160929 50 11847 62 11302 31 11892
6005 6.7428324665766466 -0.18343943673125215 2.1993136716375745 115 124 131 0.74032080017502422 50 11809 52 11188 62 11305
6006 2.7160230341467311 -0.70969750062567172 3.6165806855299807 10 23 21 1.5709098002745943 49 13446 52 11163 59 13624 62 11322 43 8477 51 11884
6008 5.9636408438680819 0.20786482751537916 1.7666758093177937 15 21 6 0.38275798884188789 50 12239 61 13031 62 11337
6009 9.6273741355248212 0.30944238573692473 3.2628996272632671 75 92 56 0.76913449536184919 50 12464 52 11220 62 11338 61 13229
6010 6.2424724064748274 0.30528484655544136 1.5372852566978505 75 78 60 0.82169087180909239 50 11905 62 11362 61 12217
6011 2.5780392161505516 0.64377514254891555 0.50914215929950191 92 92 102 0.69839575078853144 50 11967 52 11269 62 11414
6014 -0.44795435102227427 0.91586752234682933 2.4483057221680129 197 200 207 1.5551297559045212 51 11562 52 11055 61 13143 62 11451
6015 6.7074081106584877 -0.41722792461892122 2.0577340334043406 0 10 10 0.21995281901052671 52 11364 61 13175 62 11478 50 12412
6016 4.7530982211777451 -1.0678455828346258 6.4220934953247459 112 113 96 1.8903976198918622 52 11376 54 12586 62 11503 44 9662 42 7824 61 13191
6017 1.145016014320571 -0.95012776949726674 6.2252312231183735 0 0 0 1.5259316841312169 50 12250 54 12602 59 13657 49 13531
6019 1.259786212749092 -0.20504644344281947 3.345857323459982 99 112 68 1.3794885592090713 44 9495 62 11550 53 13599 54 12506
6020 1.2518005328032422 -0.20470021895703011 3.3212727189892695 99 112 68 0.81865018726449046 53 13600 62 11551 44 9496
6021 -0.42805947859117893 0.20614871886698383 2.1075746291079054 124 114 106 1.8381998267043977 61 13262 62 11579 43 8557
6022 3.3455328039283208 0.15912547272283528 2.2505454201165951 182 173 167 2.280646191669593 61 13245 62 11657 46 14017
6023 6.8634174934658141 -0.52632363712547914 3.2340312076246098 10 76 82 1.0945658234455919 50 12603 61 13381 62 11696
6024 0.5846158437863761 -1.2626672667231016 5.9996152683539625 4 23 37 1.3378645892375347 52 11569 55 12515 56 13118 63 12597 36 10910
6025 1.5279281513627414 -1.4080057226849589 5.8005262530248762 11 23 29 1.7698665033663776 50 12599 54 12741 53 13726 61 13376 62 11732
6026 6.0637417337155171 -0.11507296331997274 2.6466273023174995 60 56 38 0.38311599201017493 50 12654 61 13442 62 11763
6027 4.1871018946817689 0.15316129351933236 2.1530692536518261 6 13 6 0.92305272609647171 50 12662 61 13429 62 11767
6028 0.96214975904291467 -0.03985132746668045 2.5933858093262461 85 107 60 1.6664135295657543 54 12823 62 11792
6030 1.5614272788251822 -1.6583516687390818 5.3632400534494833 174 170 183 1.1195973286936505 53 1539 58 260 48 6999 62 105 57 104 59 153 63 5670 13 831 29 994 36 5576 33 4348
6031 1.825498495163864 -1.6817605680416434 5.2887386209228762 132 125 134 0.9362120487631258 64 9303 49 7098 55 8497 54 6407 62 128 56 1303 59 6636 63 486 15 8319 12 1000 32 7256 29 7125
6032 0.23670748858329932 0.24794273735429445 1.9763617740444119 81 76 71 0.7991294274087235 50 12322 52 11276 49 14148 54 12636 51 11798 62 11421 43 8168 42 7270
6034 0.85549662289738226 -1.7279472498063446 5.5416922122903927 177 172 182 1.6144245478741261 55 8429 50 6260 62 5764 59 9746 63 9882 35 13884
6035 1.3543259004022237 -1.7323329873027276 5.3988388813275536 45 37 54 1.419759736718516 55 9952 47 5729 64 10893 49 10071 63 9912 62 5785 52 5889 57 3425 11 4048 10 4098 2 7638 8 11251 1 3829 12 982
6038 0.92980882286906585 -1.6774926388479494 5.5019777675108061 167 162 179 0.91630857819769007 49 11770 56 11390 54 10210 50 10226 61 11008 52 9492 62 8204 59 9752 63 9890
6039 2.664011105804367 -0.53629229723683169 4.6624325826895916 26 39 14 1.517866742989386 40 1913 57 4127 59 10273 63 8954 54 9329 41 1605 62 8642 51 8635 44 1972 52 8540 49 10644 61 9949 46 8012 46 10549
6040 3.8803075688021873 -0.19270041375817387 3.0858426802791876 142 164 163 1.9044477850846071 49 7978 57 1207 56 10868 54 9373 61 1404 52 6603 62 8683 57 6642 63 11204 56 12244
