# 3D point list with one line of data per point:
#   POINT3D_ID, X, Y, Z, R, G, B, ERROR, TRACK[] as (IMAGE_ID, POINT2D_IDX)
# Number of points: 354, mean track length: 4.7637030643072942
8838 3.7983449067886079 0.26339983240604681 0.95119816065464013 119 119 117 1.4337159099155299 37 8435 36 8972 33 3107
8839 3.8248227265324894 0.28372932987888533 0.94364311009174839 138 140 134 0.94094510038464685 37 8437 36 8975 35 3270
8840 4.1329606681281614 0.2982000475684724 0.91791681218840904 177 179 178 0.75287183384631129 37 8457 36 8982 35 3294
8841 4.2000222396245341 0.258580792188353 0.90494496721273254 120 122 121 1.0699079434403231 37 8458 36 8987 35 3296
8842 3.6330190024974756 0.48202466641454622 0.54163139733189647 91 68 42 0.38285277966365622 37 11217 36 9145 35 13045 33 3491
8843 3.8191778547709077 0.49491655104374638 0.52310551230753033 100 80 55 0.62224982962377018 37 8637 36 9153 35 10291 33 3496
8844 4.1636862382630566 0.58069293733956917 0.16482887255270151 225 217 198 0.6807939986588073 37 8682 36 9229 35 10427
8845 4.2403554721613821 0.51874227920529381 0.46614400412115176 104 88 56 0.87948366327249861 37 8684 36 9236 35 4060
8846 4.5802502685141651 0.52121161702051844 0.44206676376481518 48 54 8 0.99091797883357469 37 11306 36 9301 35 4277
8847 4.503158614418628 0.63285493260158443 0.11758428247070422 156 145 123 0.737292332830079 37 11330 36 9369 35 10622
8848 4.5730041206015155 0.60990326503716707 0.11331637275431503 160 149 127 0.66490325253996196 37 11319 36 9371 35 10625
8849 4.1659496676467862 -0.73845989876456353 0.72100641764624174 151 156 152 1.2491321992398781 37 12058 36 11207 34 615
8850 4.0914668218136194 -0.67003253823905129 0.74800087060408893 112 113 116 0.57513045308834398 37 12067 36 11235 34 703 33 10327
8851 4.1653931637445325 -0.67193214444009242 0.74633305379382375 97 101 102 1.3404057683989596 37 10664 36 11236 35 12430 33 10326 43 878
8852 4.2442424713623366 -0.665830375868392 0.73317042778659403 99 100 99 0.88127948296358538 37 12063 36 11237 35 9069 34 619 33 10329 43 881 42 602
8853 4.2067387721735194 -0.46422563258657656 0.77200203946539503 162 163 158 1.0297466720460728 37 10715 36 11300 35 9345 33 1644
8854 3.5118498585095961 -0.60734819175154475 0.84235121415537606 154 156 151 0.68369528020648307 37 12086 36 11303 35 12519
8855 3.5358893859934351 -0.56646300942551353 0.84316424744131258 187 192 186 0.71440149143922926 37 10730 36 11304 35 9336 33 1776
8856 4.1238453884722119 -0.44927734158928578 0.78563129036146007 161 163 158 0.93427524516683569 37 12092 36 11312 33 10539 34 954
8857 4.092450519338767 -0.34028930693775511 0.81702430065642173 209 213 212 0.67440869140102888 37 12112 36 11365 35 9488
8858 -2.6480713654522976 -1.6216610622387377 3.8734405096449347 214 219 220 1.021390877763084 37 10824 38 7850 36 11452 35 14127 34 5061 33 10752
8859 -3.0945304070234911 -1.0126947699167197 2.4666273206379712 45 54 9 0.79166520073183011 37 10851 38 12740 39 8158 36 11479 34 5093
8860 -3.3096013982690309 -1.2278539951413656 3.8128624237256812 1 5 0 1.1042314038215935 37 10916 38 12780 36 11491 43 12482
8861 -4.2596196633117058 -0.80826133214586693 2.6733665956466957 30 43 15 0.72503982928524302 37 10903 38 11383 39 5298 36 11525 34 1398 33 10962 42 12790 41 7607 40 922 44 788 45 647
8862 -4.3705973616814999 -0.79277217797116306 2.7306795607338739 177 179 171 0.76095266992153054 37 10962 39 7261 36 11526 34 5194 42 9307 40 924 45 6288
8863 -4.3384359585255323 -0.78854100321639553 2.7183286951908774 177 179 171 0.69707372755680641 37 10963 39 7262 36 11527 34 5193 42 9306 46 589 45 6289
8864 3.9792942789962784 0.12910372620666621 0.91039552614588148 153 157 158 0.71664978415151148 37 11005 36 11599 35 9868
8865 -2.1494452631258012 0.015598467594406147 2.083144428789022 217 213 204 0.88358717102240869 37 11072 38 11497 39 8286 36 11620 34 1645 33 11196 42 9434 41 1308 46 963 40 1272 44 1201 45 1085
8866 4.0205743206203906 0.1390321720901708 0.89665612124530136 142 146 145 0.90576337517480676 37 11059 36 11663 35 9869
8867 4.0255539550434962 0.15909114867902308 0.90536420442759247 117 119 118 0.57460287891449735 37 11061 36 11664 43 2101 33 2867
8868 3.1819899758004553 0.37588664046194464 0.86065555053814913 37 30 14 0.67149655039306033 37 12934 36 11771 35 12975
8869 4.0094428734217056 0.31769679268548151 0.93666013551369887 121 123 120 0.69996134650738939 37 11197 36 11780 35 12986 34 1677 33 3316 43 2382 42 1990 46 1200 45 1308
8870 3.6267241796888272 0.40592512149499682 0.74122319263800129 39 30 13 1.0744275689131602 37 12376 36 11819 35 12979 46 7456
8871 3.9537845227827915 0.35581067205507177 0.89023142289468071 3 4 0 0.97594299139886642 37 12383 36 11833 35 12983 34 5428 33 14527 43 2627 42 2213 41 1680 46 1196 40 1451 45 1307
8872 3.9717983030328217 0.33544453394630858 0.94267185720362423 163 169 167 0.49607575881033183 37 11195 36 11834 35 12984 34 1788 33 11328 43 2631 42 1987
8873 3.305879052731131 0.56709412456913888 0.2596549162071205 212 205 186 0.83135271316451098 37 11246 36 11857 35 13038
8874 4.3010034035209044 0.52098850831981636 0.45466064589714583 52 42 7 0.47090946278273599 37 12431 36 11894 35 13114
8875 4.1522423519239906 0.61161120200201891 0.16439847710351399 156 143 120 0.94218653707694566 37 11298 36 11914 35 10530
8876 4.3986894627910038 0.60087295358929216 0.13401627184335055 157 151 128 0.85785543135059339 37 12452 36 11920 35 10534
8877 4.007872995295374 -0.64982692240994977 0.77079343095695296 104 108 109 0.70858285778573349 37 12071 36 12724 34 4873 41 7336 40 7411
8878 4.1076949509127418 -0.65413699315841278 0.7518435929410221 107 111 112 0.98061732794247736 37 12068 36 12725 41 359
8879 3.9050871064944257 -0.6408093598871315 0.78395410831183221 167 172 168 1.2428429891172679 37 12077 36 12734 33 14059 42 8961 40 409 44 78
8880 3.9253231446653727 -0.63857385573512793 0.78068908644462487 174 180 176 0.81554369471017096 37 12078 36 12736 35 12457 41 357
8881 4.2503757968470808 -0.32803240561889696 0.79002399139426749 208 212 211 0.58789777486804795 37 12775 36 12759 35 12576 43 1485 42 1135 34 1004
8883 -3.12039216030976 -1.4620980865553981 2.7078296571198757 94 102 52 1.5894008693223394 39 8133 36 12818 35 14087 34 6858 33 14188 43 12424 42 12672 41 10322 40 7520
8884 -3.0511734478993375 -0.61082395642300025 3.459381786392413 8 20 8 0.76326341955581312 39 8271 36 12913 43 12545 45 8785
8885 3.8387853192859502 0.12492157590956106 0.91680067865523118 135 139 138 0.998520912863195 37 12887 36 12920 43 9394 42 9415 34 1432 41 7715 46 7321 40 1171 45 6468
8886 -1.3165068094093222 -0.15952070323851553 2.8657777418140147 61 68 31 0.69971778063600776 38 13494 36 12938 39 8292 43 12665 42 12878 41 7773 46 7372 45 6528
8887 -1.2628848037177063 -0.27368067282672132 3.0748148204465879 88 106 78 1.5843643476770364 39 8295 36 12941 43 14754 42 15092 44 11114 45 9881
8888 3.9858183095509032 0.15509603563401975 0.90191960769021373 152 157 151 0.35110308263986423 37 12314 36 12955 46 831
8889 4.0959320816055316 0.19017853670823021 0.90462953558632697 107 111 110 1.2058244430909355 37 12316 36 12956 35 12873 43 9399 33 11120 41 7799 46 1044 45 1139
8890 4.1707156392903899 0.17903540130233386 0.89354091967173532 102 101 99 0.73122469270117119 37 12320 36 12957 35 12876 43 2107 42 1792 46 1050 45 970
8891 3.6447638486806211 0.2770984692288857 0.8536668788026831 55 70 29 2.3554862680088582 37 12920 36 12983 44 1215
8892 3.6846374459613407 0.25733371979998071 0.96323457633467191 107 112 103 1.1110325977415132 37 12922 36 12984 35 14275 34 5366 33 14478 43 9521 41 1533 46 1189 45 1133
8893 4.142936951200836 0.202950185000592 0.90453788691481252 177 181 175 0.9990171639852683 37 12907 36 12989 35 14251
8894 4.2405965930451179 0.23682848199052714 0.88673342652211273 137 139 136 0.76236233025148081 37 12908 36 12991 34 1583 35 14253
8895 3.6667026758411518 0.33518029584411613 0.73538538922965935 80 93 57 1.8937620442753209 37 12360 36 13012 33 11315
8896 3.883566030622434 0.310435173981504 0.94591227393852595 131 131 129 1.9114664277933273 37 12940 36 13018 35 14277 41 1541
8897 4.1591237127757132 0.26672429622247967 0.90799756358325756 169 171 170 0.43821816670299252 37 12925 36 13024 43 9533 33 14481
8898 4.1084610904983778 0.34048961910858155 0.92637807120223248 95 97 92 0.61223955780400174 37 12944 36 13050 35 14325 43 9649 42 9680 41 7881 45 1313
8899 4.1820223694083349 0.51399129980284797 0.47560182315115251 26 19 0 0.73107404073306925 37 12430 36 13090 35 13113 34 1891 33 11421
8900 4.3770919682740228 0.5248757283531883 0.45191685139667886 53 50 19 0.71612601618095861 37 12433 36 13092 35 13116 34 1894 33 11485
8901 4.4671315505203566 0.64645037837972386 0.070089911440129063 215 208 192 0.76148673796534105 37 12472 36 13139 35 13211
8902 4.7398884574880222 0.66710614386230704 0.030193709520749824 95 89 82 1.145485318195735 37 13000 36 13149 35 14475
8904 4.1749754848191873 -0.63747572674845021 0.74552705538894459 123 127 130 0.9424877822625205 37 12757 36 13423 35 13991 34 4847 33 15788 43 8915 46 6935 44 80
8905 3.8138920683037165 -0.66229304314986348 0.7970690917762947 134 138 139 1.7322346070870371 37 12764 36 13428 35 14825 34 6765 46 9645
8906 3.5228509162173753 -0.66940923899842786 0.82847953372552896 86 86 84 0.95668791022047572 37 12765 36 13435 33 14094 42 12592 40 406 44 124 45 5939
8907 3.5133768407012633 -0.56159513221138901 0.85137512010604643 176 181 175 0.85793319692827985 37 12771 36 13448 35 14031 34 4939 33 14115 42 12614 43 12336
8908 3.9862685880157986 -0.29435277821899569 0.86373188385683619 160 173 175 0.89706029670054122 37 13149 36 13463
8909 -3.0396628109695385 -1.4554222403475057 3.7983027869671901 15 25 4 1.5694867671791144 36 13490 39 8700 38 13796
8910 -2.5469542737857744 -1.4051133213811025 3.7835028900785406 48 67 30 0.48406614731773412 38 13402 36 13491 35 14130
8911 -2.8948924675329519 -1.4710096273869009 4.1525717830247073 22 32 5 1.0440485274800593 38 13403 39 8185 36 13492 35 14902 34 6907
8912 -4.7380819872019613 -0.9676536922599237 4.7544766741176741 100 107 100 0.92613629508702966 38 13472 39 8757 36 13534 35 14191 33 14399 41 10466 44 9987 45 9846
8913 -4.7308405234201141 -0.96493198316141726 4.7500606909785157 100 107 100 1.0410007047827357 38 13471 39 8756 36 13535 35 14192 33 14398 43 14076 40 7787 34 1417 44 9986 45 9845 46 10943
8914 3.8529740823097791 0.13653306717770555 0.91961096566037281 90 89 87 0.85828063563038004 37 13238 36 13567 35 14949 43 12615 41 10511 33 14409 34 5231 46 9824 45 6469
8915 3.4017847181832139 0.46463045538644315 0.56623310249827274 86 82 42 1.6377990320202147 37 13283 36 13604 35 14986 41 1657 40 1433
8916 3.7424655144758847 0.48747846697508163 0.53496074816645367 101 85 48 1.4664314989704079 37 12953 36 13616 35 14348 34 5488 33 14580 42 12973 41 7936 43 9637 46 1334 40 1597 45 1497
8917 3.9935288004670952 0.60070958615099757 0.18806466806892566 154 142 120 0.79867560549858718 37 12966 36 13631 35 14379
8918 4.2729075861261805 0.51776417501670469 0.46385389879038735 104 96 59 0.962717416187024 37 12967 36 13632 35 15023 34 5491 33 11426
8919 4.4842447264905134 0.63165805082884474 0.12786434934062607 159 147 125 1.003811991705472 37 13306 36 13658 35 15056
8920 4.5507831488844737 0.61130149232686481 0.11065611729886117 155 145 123 1.3068036200811566 37 13302 36 13660 43 9760 46 1508
8921 4.6291192292336838 0.63859024158331334 0.11035193964121867 144 133 111 0.66277206609312067 37 12993 36 13666 35 13268
8922 -4.2490438472332475 -1.1352231602800411 2.5468923239547614 173 176 167 1.2053488053388723 38 13792 39 9024 36 13860 34 8216 40 12654 44 11602 45 9742
8923 -5.2658838826743475 -0.78958011136304229 3.2293257225244223 2 7 10 2.0117784647904129 37 13212 39 9054 36 13890 38 13826 42 15419 41 12177 40 12375 44 11630
8924 4.0879692449245848 0.18769177787479904 0.89416424038664499 107 107 109 0.8523244163055459 37 13241 36 13914 35 14960 43 12621 42 12896 41 10514 46 9866 45 8846 34 7013
8925 3.6441229312270171 0.20649184439870413 0.94726195293488236 123 129 125 1.5393395756450547 37 13255 36 13927 35 15330 34 7825 40 10547 44 9993 45 8844
8926 4.1315556405269644 0.30351762672614924 0.9207193808195786 111 113 110 1.6274546847598377 37 13278 36 13936 33 16005 46 9905 44 1235
8927 3.9728804909382029 0.36208200876912217 0.92519969194629825 78 88 35 2.0236529976650939 37 12942 36 13942 35 14991 34 5431 33 11330 42 2216 41 1685
8928 4.1197586745961612 0.35393724476953198 0.9227606956440001 135 138 131 0.98947019925366275 37 13456 36 13943 35 15357 34 7851 33 16033 43 14159 42 12980 41 10580 46 9906 40 7925 45 8896
8929 3.7179526466334329 0.47007130111321388 0.54613771928362331 146 126 98 0.58516446534402478 37 13460 36 13952 35 15367 43 14150 42 14429 46 9940 45 8891
8930 4.4979175402811444 0.52950753142946239 0.4390117879269283 76 71 39 0.67272844483707595 37 13477 36 13976 35 15402 34 7119
8931 3.4465084835951192 -0.42487884836313594 0.80991701695174667 0 1 4 0.77321901466018439 37 13520 36 14076 35 15514 34 8178 43 14693 42 15010 41 12125
8932 3.4465084835951192 -0.42487884836313594 0.80991701695174667 0 1 4 0.77321901466018439 37 13519 36 14077 35 15515 34 8179 43 14694 42 15011 41 12126
8933 -2.9870785101169748 -1.1698040199466215 2.5777748460635856 79 93 34 0.018554836953343316 39 9217 36 14092
8934 3.21009714053343 0.45308602999411673 0.58956784352426428 110 115 64 1.6100567117947575 36 14143 34 7065 33 16060 41 10571 42 12971 43 14147 46 9936 40 7906 45 6644
8935 3.9678326287055445 0.34564504209929992 0.93058102856534131 3 3 1 0.76803105486564271 37 13455 36 14145 35 15590 34 8288 43 14793 42 14434 35 15356 41 11726 46 10995 40 11884 44 10039 45 9915
8936 4.502162891842783 0.61149999849533343 0.12956305726664122 143 132 110 0.88694760835735931 37 13478 36 14160 35 15623
8937 4.6078497502237239 0.61634290825138016 0.10783535364225458 148 132 111 0.86671159417481236 37 13483 36 14162 43 14187
8938 3.5292580062547985 -0.58552348495623929 0.84195107930389979 157 162 159 1.1033321369516069 37 13518 36 14212 35 15510 43 15048 42 15380
8939 3.4954380058637398 -0.49890441183930023 0.84444187663880532 220 226 226 1.8302014805691149 37 13587 36 14215 35 15688 34 8477 43 15054 42 15384 41 12419 46 11679 40 12637
8940 -2.9594923124423729 -1.1380044323722849 2.4206455900502628 107 120 48 1.4778675524305569 38 14141 36 14223 39 9211
8941 -4.1817360850133873 -1.0324684155656743 2.4580216116887708 110 122 56 1.3712404403627283 37 13534 38 14151 39 9334 36 14227 34 8681 42 15761 41 12636 46 11865 40 12810 44 12082 45 10780
8942 4.0099195296218992 0.070989627841886824 0.92904221981604351 2 65 75 0.97565577378662116 37 13552 36 14252
8943 3.9059622081779461 0.18204207747231602 0.93529945480659982 132 138 138 1.2935153207178298 37 13566 36 14256 43 15118
8944 2.836477318832423 0.5396790994746633 0.40759436044242214 143 136 117 0.56793266007983245 38 14262 36 14263
8945 3.7539500272931385 0.44223779568096039 0.59277326015342768 85 101 36 1.9880124088816284 37 13619 36 14264 35 15737
8946 3.7431198359258695 0.40097943728366131 0.76683900232810809 68 82 26 0.9934726968181129 37 13622 36 14265 44 11140 34 8537
8947 3.9454734422234394 0.33539341983567333 0.88640764878473399 163 171 173 1.0123203117359669 37 13574 36 14266 35 15588 34 8273 43 14791 42 15108 41 12215 46 11486 40 11883 44 10037 45 9913
8948 3.2871029533567917 0.5481670278699341 0.26399806288080646 152 140 124 1.0353095980898546 37 13577 36 14267 34 8546
8949 3.7640072208333324 0.48250421828243534 0.5428150595665191 85 72 37 0.87859025073088348 37 13620 36 14268 35 15746
8950 3.779229300529316 0.48635042728581568 0.60218861730011253 49 46 7 0.43538359706481305 37 13578 34 8547
8951 4.4086894069664311 0.52123008718259611 0.44869724439504105 32 22 6 0.70141245689366671 37 13580 36 14273 35 15608
8952 3.9242143263884577 -0.66364224883374179 0.77370161174611585 95 96 100 0.89394464265844498 37 13641 36 14298 35 15801 34 8659 43 15314 42 15741 41 12622 46 11849 40 12785 44 11863 45 10754
8953 3.6806621802029773 -0.68792461133363825 0.82532974936243908 126 128 127 1.7616017835238145 37 13586 41 12621 46 11848 44 11861
8954 3.8515889901576883 0.12983922166050268 0.92744782118606628 88 89 88 1.2774836589512988 37 13610 36 14332 35 15725 41 12679 46 11892 45 10670
8955 3.6845854925178765 0.2238190397632886 0.9557727397318212 207 213 209 2.2584738050194235 39 9524 36 14334 34 8526 42 15655 40 12397 44 11687
8956 3.7341798850472698 0.27128728588939266 0.96061882232199047 208 210 205 1.1756012658024064 37 13615 36 14336 41 12499
8957 4.3074572441474119 0.51190653539588227 0.46344299052821236 14 23 0 0.78200316073806508 37 13678 36 14343 35 15854 34 8548
8958 -3.2482568836554639 -0.25873574457960452 2.9354654173073129 35 53 27 1.8029669116592175 37 13673 38 14289 36 14391 39 9516
8959 0.32500365497568906 0.28642852901393911 1.1407436994237174 173 172 168 1.1428127066407123 38 14317 36 14395
8961 4.3299972311113937 0.60708743375993079 0.13299312287653944 166 154 131 0.82831528823389577 37 13680 36 14399 35 15915
8962 -2.8753540555918113 -1.5779532376776875 3.4057090801610799 30 46 6 1.8314884877302342 36 14445 35 15985 43 15631 44 12301
8963 3.2474480545901665 0.32444284290205638 0.7188243650412236 213 203 178 1.3253176796091413 37 13731 36 14457 34 8925
8965 -3.3128449711712138 -0.82179507247092798 3.6172793576757645 8 35 34 1.4188598467995233 39 1107 36 1836 38 8182 37 8110 35 9744 33 2612 42 1535 46 778 45 926
8966 -4.0747399755261515 -0.89824060374732695 2.3954668215020969 185 193 184 1.6991172340347449 37 8015 38 11322 39 5234 36 8502 34 5143 33 10863 41 7602 46 7198 40 7654 44 569 45 642
8967 -3.9880692777059283 -0.85340455255950243 2.4131529755837797 49 62 9 1.2114512672478188 37 12827 38 12776 39 8179 36 13495 34 6921 33 15936 42 14293 41 10396 46 10912 44 9914 45 8705
8968 3.9924170743684693 -0.62893640953845475 0.76017197912019696 198 203 199 1.6014558269369707 36 8070 35 1376 34 786
8969 3.5225068075141603 -0.69714477680061027 0.82147573973320354 109 109 106 1.1420053172805895 39 8088 35 1524 33 1627 34 870
8970 4.3019867627137174 -0.48281655701579229 0.75641861840390634 143 144 136 0.38023205492332418 36 11301 35 1572 42 848
8971 3.6181186904987941 -0.58252704392240784 0.82378198474882514 137 140 131 0.49615663476745414 36 999 39 7058 35 1737
8972 3.7678537744562641 -0.43712506348208952 0.83948194066827431 203 208 201 0.64524619867415201 36 1137 37 7737 35 1900
8973 4.6262918872139052 -0.27947073579758752 0.81283330478295035 197 207 208 0.24839487887759509 36 1228 35 2076
8974 4.1455466598869988 -0.29798317177533118 0.81627849979228773 201 204 197 0.61789271577371074 36 8291 37 7754 35 2148
8975 -3.1275596444773233 -1.4922593389355905 2.6674458751022923 241 237 226 0.83639994693412001 38 223 39 480 35 2181
8976 2.0643810991203488 -0.81324223887712555 1.9651766432115845 106 106 68 0.65881562182385067 36 1370 35 2277 37 7823
8977 2.1709682541380868 -0.76102548129250203 1.8832612415076204 253 251 240 0.80388454966780321 36 8351 37 7825 35 2278
8978 -2.948938945675847 -1.1176099694594359 4.3608192355210047 112 122 113 1.0734405533926887 38 792 35 2647 33 2632
8979 -4.3500331215513954 -0.92558537397330554 4.8267061584148045 95 102 95 0.89095537671230374 39 1243 35 2704 33 2835 45 940 37 8206
8980 -4.3471137008592624 -0.92457460303128147 4.8228403998704756 95 102 95 0.62944936247815308 39 1242 35 2705 33 2834
8981 -4.0174191875752587 -1.1538344719970783 4.965632619828086 1 6 8 0.91155122825579848 37 1521 38 982 35 2708 42 1660 41 1183 44 848 45 941
8982 3.6563767834387026 0.059061844213668883 1.0030284046127402 2 48 54 0.51762034235530541 36 8688 35 2724
8983 4.018928581608928 0.072875587959141314 0.93962664415207175 22 110 124 0.53304141647113834 36 8692 35 2726
8984 -1.5975119729764766 -0.099232646078155254 2.442907415580613 97 110 67 1.3646501130658439 38 1251 35 2749
8985 3.5709962326409093 0.15240639897774258 0.96248503766588567 175 181 179 0.91174135786892396 36 8781 35 2822 33 2854 43 2086
8986 4.048532343150864 0.12384696139516026 0.90004268425785783 161 163 162 0.51396615173995908 36 8693 37 8133 35 2838
8987 4.1596229747609268 0.17687761290470957 0.89322719673726014 185 191 189 1.1271151714736554 36 2166 37 11067 35 3010
8988 4.5337132804309812 -0.73830648691566692 0.67958809065744308 183 188 182 0.8184138375176222 36 11161 35 8849 33 801 43 755
8989 4.5400699014085779 -0.62957684371701472 0.70418125095188544 132 136 139 0.89675741793229813 36 7880 35 9009 33 1146
8990 4.6110444887477176 -0.59632043144584368 0.69748842837950975 172 176 172 0.66246875966302932 36 7889 35 9013 33 1158
8991 3.5138874533825848 -0.841845167848839 0.80150440743121643 143 145 141 0.98805938674436156 36 8002 35 9062 43 871 41 295 40 333 45 17
8992 4.710820271174005 -0.54187096292738557 0.69615591646326846 192 197 191 0.38177094935697992 36 11223 35 9088 33 1164
8993 4.7375626690061514 -0.51777432451054706 0.69472109291153927 194 200 193 0.8319534984389646 36 11224 35 9092 33 1333
8994 4.7375626690061514 -0.51777432451054706 0.69472109291153927 194 200 193 0.8319534984389646 36 11225 35 9093 33 1334
8995 3.6417149353814797 -0.69200414288321332 0.80851752896774443 94 99 96 0.42190994052317043 36 11275 35 9159 33 1628 43 1016 42 708
8996 4.1430741371204522 -0.50965972401543291 0.78155736832616984 211 216 212 1.0765541720642764 36 11298 35 9259 46 179
8997 4.1859105153177456 -0.47033856537116669 0.77685837364759813 189 194 188 0.38188004562105043 36 8132 35 9343 33 1642
8998 4.4478678147007971 -0.43362209944761299 0.75302885451999613 177 174 172 1.0383972642773991 36 8144 35 9354 33 1653
8999 3.835470346984835 -0.45103615977734474 0.82624350450296169 196 197 192 1.5928047776564649 36 11330 37 10731 35 9422 34 950
9000 4.1407113651389942 -0.41806510777013406 0.79273755908375387 214 216 211 0.78156760797081848 37 7676 35 9423 33 1787
9001 4.4236668612969128 -0.31934797075867483 0.76739050171475576 227 233 229 0.33591056703544736 36 11342 35 9436 43 1308
9002 -2.9866739063116636 -1.4670410511564171 2.6454929360756845 245 245 234 1.2573127474589851 36 8378 38 7757 35 9539 39 5074 34 1172 33 10737
9003 -3.129817674661969 -1.1244925499895 3.6441565773197446 186 188 183 1.2420412603109365 37 8032 38 8064 35 9692 34 1324 36 11492 37 10913 33 14271 42 9269 46 7228 44 595 45 6306
9004 -2.9527531325946863 -1.411748089256075 4.4477279382346353 36 47 8 1.1502549605334424 36 1740 38 11279 35 9704 34 1269 33 2451 42 12772 43 12489 40 7692
9005 -2.696003345299808 -1.2589575773184196 4.4090737663396391 150 156 153 0.72022532229297909 39 5342 35 9765 34 1345 33 2454 46 655 45 728
9006 -2.9669406797032676 -1.224789161389467 4.9455335231783231 22 44 43 0.75444205716198631 38 793 35 9772 42 1578
9007 -1.3651272105427046 -0.32624766413762174 3.2896814815877029 6 4 2 0.99575129092107839 38 8382 35 9836 42 1745 46 984 45 1107
9008 4.548504241096329 0.14894909212462334 0.83240304850879132 165 172 168 1.0238860620257517 36 11604 35 9879 42 1812
9009 1.2495234440866223 0.17284150996289091 1.6637064392784182 230 222 203 0.79531013415059471 36 8858 37 8407 35 9914
9010 4.1299680020760272 0.17733053129109858 0.89413872255395788 151 157 153 0.62031561643349864 37 12319 35 9955 33 2875
9011 4.1622418725899575 0.21403880404663911 0.89443839427572791 96 100 99 0.72784538073263561 36 8897 35 9960 42 1795
9012 4.3355928510280819 0.20056300645627509 0.87762559319884736 96 100 99 0.90674565970727061 36 8803 35 9963 42 1801
9013 4.6748257229806871 0.18030151884383311 0.82835902987099719 233 242 241 0.7241698992268768 36 11686 35 9976 33 2667
9014 4.730487658643959 0.20756591250274165 0.829672006924139 125 130 126 0.67275929692172332 36 11743 35 9983 33 2908
9015 1.5655278108951407 0.2373290988706527 1.5539027338453335 211 205 189 0.4029949040535632 36 8953 37 8411 35 10040
9016 3.9373287788576703 0.30204715493797069 0.93910967439689197 135 137 134 0.35938153016612073 36 11778 35 10059 33 3113
9017 4.2169321375975297 0.2737220593367608 0.90514308375903341 103 103 101 0.73238652152794426 37 12364 35 10068 33 3119
9018 4.3447712960812019 0.29563144574179367 0.88742579124623555 228 234 230 1.1903294677499123 36 11785 35 10072 33 3128 43 2393
9019 4.4549125788724115 0.28779761380242641 0.86894347124602167 174 180 178 0.46969104378666243 36 11786 35 10080 33 3131
9020 4.6458660177234758 0.27184726331184283 0.84613564245221129 115 120 116 0.71171829751611393 36 11795 35 10089 33 3137
9021 3.6759565388603268 0.36857447891519851 0.80124111040337553 12 7 5 1.0283945425028409 36 11821 37 11187 35 10178 42 9577 43 9645 41 1527 46 1188 40 1439
9022 4.6216356330962585 0.33323651313066982 0.85908546456097212 176 185 184 0.31851317060617895 36 11846 35 10210 33 3140
9023 4.7107125286259892 0.31762484314851414 0.8448785083925977 101 105 104 0.27947901587200724 36 9120 35 10214 33 3145
9024 4.7456618496695064 0.3204513478877265 0.84924164103220856 108 109 111 0.59406788613145889 36 11853 35 10219 46 1223
9025 4.3893757663201791 0.52575592014300854 0.45528059356341449 37 25 0 0.49988234722744213 37 12434 35 10433 33 3666
9026 4.3903878587710681 -0.78403100184754837 0.6964167477480927 143 144 139 0.16356077505281105 36 12691 35 12333 46 88
9027 4.0154833389374884 -0.81393329092980504 0.73299126212718646 144 145 142 0.90910807275898897 36 11203 35 12360 34 515 33 10265
9028 4.5622617709482443 -0.70022517307087651 0.68990627250203873 156 158 155 0.42885363468150656 36 12693 35 12366 42 506
9029 4.7047083361200972 -0.65558191922279518 0.67785621948693786 146 151 147 1.011493317427991 36 12694 35 12368 33 10199
9030 3.5298203277523537 -0.86218880129586939 0.80141350370567987 157 161 158 1.6911144997115899 36 8001 35 12425 34 695 41 293
9031 4.4502888081284127 -0.58350369851606054 0.72277120930235306 178 180 175 0.89899824083717605 36 12715 35 12435 34 705 43 1032 42 715 41 365
9032 4.7051831300983249 -0.51216250774161154 0.70116687963090985 218 225 221 0.90155628236097252 36 12721 35 12439 34 713 33 10340 42 725
9033 4.6470032679099695 -0.47054036817499922 0.71421127404724705 200 203 196 0.87296084807545604 36 12730 35 12464 34 712
9034 4.361044126987724 -0.51182722620235266 0.73795388555192365 211 216 212 1.4223937598005787 36 12737 35 12490 33 14065 34 4881 43 1029 46 154
9035 4.4390080844053577 -0.45678497222372788 0.74649184476705299 189 190 184 0.89796582332992381 36 12738 35 12492 33 10478 34 882 43 1193
9036 4.6226781187015904 -0.45944794831367075 0.72757724155292958 159 160 153 0.80745531845930041 36 12731 35 12493 34 799 33 14066 41 441
9037 4.3328961726448734 -0.32592646188996266 0.78045911880856667 203 209 205 0.84022305516523532 36 11337 35 12577 34 1007
9038 -3.200589282216161 -1.8765132249620897 3.5317796904130683 54 68 14 1.1430502202287631 36 11383 39 7137 35 12591 37 10800 34 1114 33 14168
9039 -2.8086777078378584 -1.7530834528145591 3.4747600540850407 63 73 8 1.0446432255648339 38 11195 35 12616 43 12390 42 12679 41 10328 40 10371
9040 -2.927642469387346 -1.4197333314821279 4.4855786312926522 98 105 76 1.3745637259116616 36 11502 37 10869 38 11281 35 12718 34 1271 33 10895 43 12491 42 12773 40 7694 44 9870
9041 -1.5813228116486229 -0.077111817515829989 2.4538437097405481 45 50 20 0.42539776467676543 38 12897 39 8289 35 12803 33 14470 42 9446 41 1316
9042 -1.0971935057116937 -0.20139944730350035 2.745002597335132 84 101 61 1.8282103401324894 38 12899 35 12807 46 7370 45 6529
9043 -1.3667187715374567 -0.28402085287715806 3.140132324397539 97 112 85 0.86491067138738897 37 11088 38 12903 35 12813
9044 3.9129164046926088 0.14696950189476379 0.91565902140518185 124 129 125 1.3534379701859804 37 12313 35 12836 43 2096 41 1348 45 964
9045 4.434714306018007 0.16184109255860507 0.85961255172677031 96 100 99 1.1632514771308813 36 11670 35 12842 43 2120 42 1807 46 848
9046 4.1205235529861817 0.19294734296002194 0.89705277146369711 159 161 158 0.9780076304718941 37 12317 35 12874 33 2876
9047 3.9363467487648167 0.27025858291755578 0.93146655022760938 131 136 134 0.79573387827910247 36 13019 35 12931 43 9524 42 1985 46 7461 40 1314 45 1137
9048 4.3498686152407577 0.24069906529618859 0.87547711187842336 128 132 131 1.3259798853144231 36 11723 35 12932 33 2890
9049 4.5723251689185673 0.24709523319990676 0.85157992442959807 162 166 165 0.68280763645335396 36 11734 35 12935 33 2904
9050 4.5295964239389974 0.28870382655608817 0.86164457087301793 150 155 151 0.50993993666808868 36 11789 35 12936 42 1999 41 1554
9051 4.73685702640228 0.2766938136938541 0.8432385566963907 131 135 133 1.3010950354205224 36 13033 35 12940 33 11239 46 1091
9052 3.9545469281336656 0.34596279118118373 0.88844556651305584 125 133 135 0.72963011918900844 37 12381 35 12982 43 2626 46 1195
9053 3.9911671889044174 0.31246480752386518 0.94203127657890195 159 162 155 1.3109304813613818 37 11196 35 12985 33 11224 42 1989 46 1199
9054 4.2684508618426209 0.30587439635540131 0.89540881460717991 166 171 169 0.80466799839880954 36 13027 35 12994 34 1681 43 9539 41 7882 46 7470 40 1460
9055 4.400632063885821 0.31989911422379169 0.88130729878982095 178 184 184 0.96330288122265473 36 13058 35 12995 34 1683 42 1998
9056 4.6108191677064641 0.29669191234487868 0.85732301602288641 110 115 111 1.2987861600898856 36 13031 35 12997 42 2007 46 1213
9057 3.6623135484115155 0.55865481813038387 0.2185514869504758 149 141 124 0.66587906042738787 36 11859 35 13041 34 1877 33 3482
9058 4.7516203169607811 0.62231072386993602 0.094340652956002816 140 131 116 1.0500044837858624 36 13143 35 13270 33 3839
9059 5.126851144428775 0.64728538808975566 0.050244666027281899 152 141 119 0.71022188548204079 36 13178 35 13340 33 3974
9060 4.7029795550822859 -0.72418484893468538 0.66184314624052798 164 170 168 0.98713148783697457 36 13407 35 13960 41 7273 46 6898
9061 3.9225105359759449 -0.67558952628989899 0.77225643909849317 90 90 92 1.0747771388875571 36 13421 35 14009 33 15807 42 12595 41 7335 46 9644 40 408 45 8523 42 14198
9062 -3.5588933628918684 -1.1387004122900206 5.070820850408162 4 11 14 1.0629018497037104 39 8257 35 14193 33 14336 34 5221 43 12562 42 12854 45 8788
9063 4.2177525265091615 0.16086092388824055 0.87477489148125487 159 161 158 1.39090625774355 37 12892 35 14222 34 5232 33 14343
9064 4.2178857036165018 0.16090436319524948 0.87459191345510334 159 161 158 1.1549037981824553 37 12891 35 14223 34 5233 33 14342 45 6474
9065 4.2792303092833022 0.14424059687539714 0.86831702534256916 138 142 141 0.45416878902123647 36 13542 35 14224 33 14344 42 9477 41 7801 44 1063 45 972
9066 4.548943632470948 0.16937902461538012 0.83641256732871316 129 133 134 0.94540395623256845 36 12963 35 14226 43 2124 34 1444 42 1816 40 1181
9067 4.6507719502120395 0.16535879044204285 0.82395918042075156 134 135 137 0.73566101581451482 36 13571 35 14227 43 9410 42 9481 40 7799
9068 4.7022149225118062 0.15695824129977778 0.82014034524352408 170 176 174 1.3474332598651388 36 13543 35 14228 33 14346 43 9413
9069 0.21752743193167065 -0.12598383617259085 2.7216007230041472 115 134 55 1.0764387997183289 36 13579 37 12898 35 14238 46 10975
9070 3.9044345259016491 0.20910500434308871 0.92896569580241062 170 175 171 0.75738164976338196 36 12987 35 14246 33 14413 40 7868 45 6554
9071 4.1921707786714082 0.1755814621358395 0.88472636113445557 175 181 177 1.2437604638931377 37 12888 35 14250 41 1355 46 7396
9072 4.1493996367366366 0.20393056258171297 0.89679172161262477 181 183 178 0.91838066933603224 36 12988 35 14252 45 6558
9073 4.1097998085033263 0.2710657369103423 0.91180484997996414 145 147 144 0.92401735694109732 36 13593 35 14279 42 9581 34 5373 41 7878 45 6561
9074 4.6889874021671663 0.2338321284939876 0.83892054998286048 154 156 155 0.95543930584244185 36 13587 35 14282 43 9418 41 7815 46 7405 40 1334
9075 4.1112532677503557 0.31735633564327931 0.92173498934739506 109 109 107 0.73885915679469061 37 12943 35 14323 34 5375 41 1546 46 7465
9076 4.1969690123879388 0.33618859037054077 0.91070082017092002 167 169 164 0.71246901596253653 37 12948 35 14326 34 5376 43 9651 42 9682
9077 4.6543015164012473 0.2953715096059118 0.84762318223383637 71 73 72 0.92162628728332174 36 13594 35 14332 34 5382 33 11236 43 9551 42 9591 41 1563 46 7485
9078 4.6995977275997092 0.31095965642839685 0.84792250636068456 182 189 182 0.60057982686475242 36 13063 35 14333 34 5383 33 14488 43 2405 42 9594 41 1564 40 1480
9079 4.6081207652432576 0.35188489240198623 0.86412920256949055 127 124 111 0.77849123285643518 36 13061 35 14361 34 1804 43 2655 42 2235 41 1710 46 1215
9081 4.1671995574985647 0.51252201321341928 0.46873623606923254 81 77 37 1.3802129154738323 37 12962 35 14380 33 11420 42 2203 41 1671
9082 4.706049183312083 0.64367573787732468 0.09479864749010615 161 150 128 0.3140391221801711 36 13672 35 14460 34 2043
9083 4.3811630413302485 -0.8147880087787277 0.68824229126823988 180 185 181 0.72739047478268926 36 13811 35 14792 34 6716 33 15757
9084 4.5906048612643984 -0.66275208796279383 0.69165182660777913 200 202 199 1.0136514998977779 36 13815 35 14803 34 6726 42 12563 41 10229 40 7350
9085 4.4787213239870729 -0.63128641959443899 0.71120875795467475 90 96 96 0.72779169429219204 36 13817 35 14810 34 7677 33 15779 42 12585 40 10317
9086 4.1519861366594393 -0.66899028580753372 0.74991711443747089 118 121 118 0.63570482063844203 36 13820 35 14818 43 13907
9087 4.2222233453495681 -0.65894480784350862 0.73096934851344419 88 89 93 1.0719183155325847 37 13142 35 14819 33 15789 41 10224 46 9642 40 10316 45 8521
9088 3.9069223357958469 -0.68466374746394887 0.76485320713221483 188 190 185 1.3710801156020807 37 13146 35 14826 42 12594 40 7408
9089 4.7043758080696332 -0.36147904512697848 0.72511872734618565 170 173 164 0.5602592649349214 36 13823 35 14843 34 6777 33 15824 43 12367 42 12647 41 10285 46 9648
9090 3.5988692168155807 -0.42644445738956027 0.86001257247742435 176 181 177 1.1120828488189822 36 13456 35 14863 34 6808 43 12364 46 9687
9091 3.8556055191413994 0.13698103644654511 0.9176104184261541 78 79 74 0.77196463257824366 37 13239 35 14950 41 10512 33 14410 45 6470
9092 3.6164886423350016 0.18235526522677029 0.96117253422384152 161 165 166 0.92856808571977045 36 13913 35 14958 43 14098 41 10510 45 8843
9093 3.251259319389165 0.3371639557901554 0.75398200938282856 138 131 105 0.19775254411434809 37 12918 35 14973
9094 3.697060987795878 0.33965206811056758 0.85083488320869238 31 18 13 0.99866683523133037 37 12938 35 14974 46 7459
9095 3.2726907096765898 0.40800102604546823 0.73800279298564253 108 100 70 1.9483467574752789 36 13605 35 14987 34 1772
9096 3.6985783820445115 0.36889726406301765 0.8061597610718062 46 37 20 1.3437547879810143 37 12937 35 14989 44 1217
9097 4.5617663627731568 0.53342904400844593 0.43593826349166326 82 72 35 0.68868057658062409 36 13977 35 15041 34 7134 33 16091
9098 4.7210662952300551 0.54441984541995225 0.42017991801745846 60 40 15 0.96056745665289278 36 13661 35 15042 34 5530 33 14616 43 9770
9099 4.8864759966280413 0.63073973147258455 0.072800559887810742 160 152 131 0.75054777796781313 36 13995 35 15067 34 5564 41 8036
9100 4.6854608033480245 -0.68690541733072497 0.66940997867841412 157 162 158 1.0763898829062786 36 14071 35 15218 34 7664
9101 -2.705953962925014 -1.771200632506047 3.4077848529980752 231 230 225 1.3770158277710636 38 13776 35 15251 39 8672 43 14692 42 14249
9102 4.622478502347497 0.1057141686328594 0.8369660782559436 33 131 150 0.9715184335991901 36 14118 35 15314 34 7789 43 14084 46 10949 41 10474 40 10515
9103 4.6250668605414242 0.19208137952158252 0.83406438526754323 116 118 117 1.0335278737156446 36 13919 35 15336 46 10983 40 10551 44 7392
9104 1.7366085974554972 0.27688164651674535 1.4363662965635378 105 105 103 1.3423801449266735 36 13932 37 13262 35 15349 34 7067
9105 3.1039245078973408 0.37301009680720248 0.88726992067817601 203 193 166 1.1892182392251354 37 13454 35 15353 46 10990
9106 4.4905845094594428 0.30697076791110584 0.86970811668107284 173 184 178 0.90255736654598417 36 14140 35 15359 34 7043 43 14132 42 14405 46 10997 40 7931
9107 4.539715779997481 0.32533727763114362 0.86397471955161176 155 160 156 0.82124642647598445 36 14146 35 15360 34 7839 46 10998 44 10042
9108 3.7198505579917009 0.47023877973853279 0.54464646615066514 151 136 106 0.76270606531745355 36 13951 35 15366 34 7114 33 16065 42 14428 43 14149 41 10574 46 9941 44 7572 45 8892
9109 3.8046728966386976 0.61503128058847145 0.14670999044327027 128 128 128 0.47963263931194511 37 13290 33 16087
9110 -2.7016106803773736 -1.4502664567319912 2.9125616310022409 48 65 10 1.3581908437818817 38 14018 34 8489 43 15066 42 15389 41 12131 46 10861 40 12316 44 10987
9112 -2.568881534455461 -1.4724783577327778 3.670561024332391 47 65 13 0.88349077250799579 38 14019 39 9026 43 15329 42 15404 41 12442 46 11395 40 12657 44 11580
9113 2.1537236225569321 -0.51123248819957512 1.7900294904109413 100 111 51 0.77745770183106389 36 14100 37 13532 35 15535
9114 3.6639095083352577 0.079646701351903673 0.9637941967350232 178 197 200 0.74746610295130744 36 14250 35 15562 34 8256 43 15106 42 15453 41 12186 46 11457 40 12382 44 11119 45 10372
9115 4.4307840117476882 0.29774850000796949 0.87455284380355003 153 162 157 1.7712814404336865 36 14260 35 15593 34 8274 43 15128 42 15112 41 12218 46 11488 40 11887
9116 4.3760602221172755 0.52059046020130484 0.44725963033548705 50 52 4 1.501336381160163 37 13579 35 15607 43 14189 42 14462 41 10626 46 11013 44 7581 45 6758
9117 4.8580994952983962 0.63213706084172161 0.081017393821801023 165 157 134 1.5346961639227195 36 14280 35 15632 42 14487 43 14223 46 9983
9118 4.5404774476439229 -0.65267212776950057 0.67348726228368305 171 173 168 1.8109221874142865 36 14210 35 15684 34 8460
9119 3.6163349720172158 -0.70648510117457552 0.79914924721229552 163 165 160 1.6603087649471882 36 14211 35 15686 34 8465
9120 3.8058001086849198 0.32237270924897993 0.92537314677528182 123 124 118 1.3350485176641917 37 13573 46 11485 40 12409 44 11688
9121 4.5454886261171579 0.3030429964134817 0.86130511839775625 158 166 163 0.97070424976664327 36 14337 35 15741 34 8530 43 15129 42 15471 41 12501 46 11775 40 12410 44 11143
9124 4.331889011192751 -0.60924581372818754 0.7261765794087639 188 192 186 2.078092164514171 36 14297 35 15799 43 15312
9125 3.9242143263884577 -0.66364224883374179 0.77370161174611585 106 106 109 0.89394464265844498 36 14299 37 13642 35 15802 34 8660 43 15315 42 15742 41 12623 46 11850 40 12786 44 11864 45 10755
9126 4.012939227146247 -0.66011939891278026 0.76275959265466886 120 122 121 0.7592102633944442 36 14364 35 15803 34 8770 43 15441 42 15743 41 12740 46 11964 40 12787 44 12062 45 10756
9127 4.012939227146247 -0.66011939891278026 0.76275959265466886 120 122 121 0.7592102633944442 36 14365 35 15804 34 8771 43 15442 42 15744 41 12741 46 11965 40 12788 44 12063 45 10757
9129 4.5580886636800653 0.15403851196313526 0.83568541388670081 162 164 163 1.0637588040135957 36 14392 35 15835 43 15361 41 12680 40 12676
9130 4.6378461515510709 0.12204372846994081 0.84286617735336067 204 215 219 0.77037747569935977 36 14390 35 15836 34 8685 43 15350 42 15651 41 12665 46 11893
9131 4.6190426688171629 0.28870894075213338 0.83754056300791457 152 158 156 1.1359048725576963 36 14339 42 15669 46 11901
9132 4.3072315224278475 0.34770795034056179 0.90518591954386396 130 134 132 1.3043474964882751 36 14341 35 15849 34 8710 42 15676 41 12696 46 11900 40 12844
9133 4.6680121875722254 0.3702651911825246 0.84854019168668338 114 114 112 0.79492765091137307 36 14398 35 15853 34 8711 46 11902
9134 4.627684062331376 -0.63301661503148576 0.68951365670997178 91 95 97 1.0495756045359517 36 14405 35 15886 34 8762 43 15438 42 15738 41 12736 46 11962 40 12783 44 12058
9135 3.9896922268738448 0.33408629157572273 0.98152145883793485 159 160 152 1.6513804531087839 37 13676 35 15913 34 8803
9136 4.5673884797345838 0.36125412548334646 0.86038338582953722 161 163 158 0.56646053535451135 36 14397 43 15373
9137 4.8342645371222268 0.63750157139523622 0.07358415745956122 183 172 153 0.55781442738541187 36 14442 35 15948 34 8807
9138 3.6575440625646163 0.166929994044963 0.96121385456514818 163 167 166 1.7883950843102803 37 13739 35 15991 34 8944 43 15637 41 12886
9139 3.5657163751310414 0.41067769586674358 0.71714058537133929 38 31 14 0.50295811118272915 36 14462 34 8945
9140 4.5159038151239423 0.32003160973898814 0.85803908086198932 110 116 116 2.0300402575214029 36 14463 43 15621 42 15917 41 12874 34 8939 46 12086 40 13027 44 12292
9141 3.374129472215706 -0.96617827544361323 1.1019057553320506 187 189 184 2.2260528774519193 36 14468 34 8953
9142 3.8931714561758217 0.20846444360211802 0.83739475257889739 116 121 117 1.755005062978181 36 14470 34 8949
9143 -3.4916109631935757 -1.0142644401997225 3.6599526536766409 34 45 29 0.54656668809490572 39 9587 35 16005
9144 3.596232044696666 0.38241977983696757 0.92448088540234008 85 101 42 0.34473797185069444 37 13741 34 8951
9145 5.3181340712170151 -0.70540004255222133 0.5817147817395808 185 190 184 0.48559762437524756 35 12257 34 127 33 9840 42 278
9146 5.4077115569033456 -0.69924173327558203 0.57178238534727532 134 134 134 1.6403243777391532 35 12234 34 134 33 9796 41 67
9147 5.0858021737142503 -0.79493765065663058 0.60194865483846238 155 155 155 1.03015103256955 35 12246 34 179 33 9883
9148 5.0857551262767808 -0.77423366218409695 0.60614272180511786 180 183 176 0.96774894559856872 35 12250 34 180 33 9885
9149 5.0856583960339892 -0.77453155658609363 0.60665536053215052 180 183 176 1.0935101321269558 35 12249 34 181 33 9884 43 485
9150 5.1271005623622328 -0.73441834664258598 0.60690699515502211 161 161 159 0.86617358034375636 35 12271 34 187 33 9892 42 272
9151 5.1459630761685471 -0.72611433286052474 0.60671166871978033 147 147 146 0.33679400066489223 35 12272 34 192 33 9893
9152 5.3024012568730958 -0.697634339721801 0.59002011631399887 188 191 184 0.057980262440728791 35 12258 34 202 33 9839
9153 5.3338129242556844 -0.66822298873705099 0.58795873575518975 186 188 183 0.47532890920413617 35 12260 34 206 33 9898
9154 5.3349586577715122 -0.66600533223517444 0.58530202402659104 186 188 183 1.5451790005354875 35 12261 34 207 42 280
9155 5.4146301232173437 -0.6488246010191332 0.58083497857361233 130 132 131 1.2706421032852961 35 12265 34 209 33 9849
9156 5.3929288680657628 -0.64557570592937052 0.58592717037849229 196 198 195 1.1441994153612647 35 12264 34 210 33 9902
9157 5.0214766742581709 -0.71868296856676006 0.6169587574361709 197 199 193 0.54066418170317043 35 12284 34 259 33 9938
9158 5.2415106619986016 -0.64385876721420188 0.60927736803947119 138 136 136 1.1137657734722071 35 13934 34 265 33 13868 41 173
9159 5.2507031885253692 -0.65573027884492863 0.60317433370196971 150 151 146 0.57419421341791543 35 13926 34 266 33 9946 43 650 42 389 41 7234 46 6887 40 226
9160 5.2846855769567656 -0.61352467138685707 0.60325418776228013 138 140 137 0.31894009912194443 35 12288 34 267 33 13874 43 651
9161 5.1677850447552531 -0.61028818932169326 0.62332341026528593 94 98 97 0.767655001234958 35 12315 34 322 33 10005 43 647
9162 5.3797792692671846 -0.54719154375090084 0.60594514485344741 191 193 188 0.086873978931809981 35 12326 34 332 33 10017
9163 5.3558100348016833 -0.53663399010202584 0.60850663694494667 208 215 208 0.69732292056798229 35 12328 34 334 33 13909 41 262
9164 5.3553244296648463 -0.53744857096404752 0.60964647324334442 208 215 208 0.26093049781401684 35 12327 34 335 33 13910
9165 5.3942207179540116 -0.52261373109506337 0.60985424479863282 159 159 157 0.56589517474080098 35 12331 34 338 33 10020
9166 4.8442739760888802 -0.63751411613218811 0.65767475555207644 115 117 115 0.42309976250321685 35 12345 34 455 33 10140
9167 5.1429054191183283 -0.53969036227115297 0.6399907336373557 195 200 194 1.0031082753946603 35 8959 34 464 33 10153
9168 5.396872538550312 -0.41494818390623217 0.62878117440629888 169 170 166 0.98954740240454386 35 12422 34 482 33 10176 42 640
9169 5.4281117360685656 -0.41837168913888434 0.62409875627447708 220 228 220 0.33543088061973858 35 8981 34 483 33 894
9170 4.7397626061717393 -0.62281454068253173 0.67453821172973782 132 136 135 0.79869028929168218 36 11185 34 525 42 512 43 768
9171 4.8436114893714519 -0.58668994814326381 0.66861590041278673 159 162 159 1.063302597229947 35 12369 34 527 33 10206 40 275
9172 5.3079511820854304 -0.42388392753080595 0.64089688678112866 195 201 195 0.73117868321583201 35 9050 34 544 33 1025 43 902
9173 5.321386840552301 -0.37820164749315371 0.64317113658638747 194 198 191 0.51902941992429086 35 12450 34 650 33 10221 43 1059
9174 4.5685671207301004 -0.54681221926693524 0.71274248964596487 198 200 195 0.36568030361748943 36 11242 34 708 43 1034 46 156
9175 4.9588198577784866 -0.42218238791733809 0.68027896758426243 197 202 196 0.30213721365865326 35 12472 34 719 33 10345
9176 4.9948548347649595 -0.39825600530505356 0.68116743228816379 170 169 165 0.53267186832111146 35 12473 34 727 33 1354 43 1211 42 864
9177 5.1190920920149008 -0.34969792436186892 0.67258820994854662 187 187 182 0.21924185684450448 35 12482 34 733 33 10355
9178 5.2658411887376486 -0.3370022010984276 0.65942704296360555 205 207 202 0.9036072128242717 35 12486 34 738 33 10358 43 1228 41 465
9179 5.3387467706943381 -0.31603995404959656 0.6543403732637938 212 218 214 0.76912065985000966 35 14017 34 742 33 10363 43 1233
9180 4.6242098133806362 -0.45860511841919133 0.72621528094901067 169 170 164 0.81860050198082113 35 12494 34 798 33 14067 42 858 41 442
9181 5.0622713025854988 -0.33626573800800807 0.68357961252507782 226 236 228 0.56905004656930513 35 12502 34 812 33 10418 42 875 46 214 41 457
9182 5.2102253995026881 -0.30379573401583876 0.6721665672870667 216 221 217 0.76481642410400119 35 12509 34 822 33 10423 41 469
9183 3.5131968971102219 -0.67153482833376588 0.82257926577278984 217 227 228 1.3947260656649523 35 1525 34 871 33 10465 42 703
9184 4.7404351919595111 -0.37170076323349399 0.72011318263138913 210 215 209 0.64194054059434946 35 12532 34 889 33 10481 43 1205
9185 4.9236681847736685 -0.29299672886448447 0.70861889953163848 168 169 166 0.57156605544839767 35 14036 34 910 33 10493 41 541
9186 5.2106102775924148 -0.25081014555298503 0.68203625214262875 224 229 222 0.38791903970814867 35 12540 34 918 33 1719
9187 4.471510216228487 -0.35427706723566377 0.75726005987854905 164 165 159 0.35295662714987053 35 12551 34 961 41 522
9188 3.4528593920577828 -0.43714779978299184 0.81142930313678419 6 2 4 0.80088688054398394 36 8274 34 999 42 965 41 616
9191 -3.1917855046106665 -1.9020757455300643 3.8520812307274488 242 240 230 0.47397432325868005 35 9565 36 8393 34 1116 37 7860 33 10749
9192 -4.0912817517010867 -1.0974657531770926 2.4324010634990505 79 91 51 1.1139351842255105 36 8441 37 7945 39 7183 34 1234 38 11265 33 10858 42 12710
9193 -4.0079734387656529 -1.3072174744413305 3.4932698676780216 16 25 7 1.2593375775385951 35 9685 37 10856 34 1249 36 8522 33 10877
9194 -2.6301926609445494 -1.498624577701376 4.0555440991989906 32 45 3 0.4824486521154927 35 12682 34 1262 33 10821
9195 -2.927642469387346 -1.4197333314821279 4.4855786312926522 65 77 42 1.3745637259116616 35 12717 36 11501 37 10870 38 11280 34 1272 33 10896 43 12492 42 12774 40 7695 44 9869
9196 -4.2341604321934332 -0.90649758703663708 2.3867929896068469 70 80 33 0.61101023605342453 36 8501 37 10894 38 11321 34 1298 33 14250 41 7601
9197 -4.2341604321934332 -0.90649758703663708 2.3867929896068469 70 80 33 0.61101023605342453 36 8500 37 10895 38 11320 34 1299 33 14251 41 7600
9198 -4.1098076302799509 -0.8733135113883681 2.3864385776088355 34 43 12 1.0274243789789685 36 8503 37 10896 38 8027 39 5233 34 1300 33 10958 42 12748 41 7603 46 7196 44 568
9199 -3.9249557186527224 -0.83892903920901785 2.4508508725626719 20 30 0 0.85886237919893349 36 1669 37 1293 39 5236 34 1304 33 2573 42 9238 46 7199 44 786
9200 -3.1339959873403687 -1.0446487161836271 3.5720490085040231 4 5 1 1.6600811017866184 37 1342 34 1325 33 2426 42 1532 41 1008 46 617
9202 -3.2094667410296247 -1.2386647171310488 4.480395318768192 175 180 173 0.79700582497474759 37 8047 34 1341 33 10894 45 718
9203 5.427666377802117 0.20899038622253605 0.73763924615831822 132 136 137 0.3448718814575642 35 12916 34 1369 33 10919
