# 3D point list with one line of data per point:
#   POINT3D_ID, X, Y, Z, R, G, B, ERROR, TRACK[] as (IMAGE_ID, POINT2D_IDX)
# Number of points: 382, mean track length: 4.9530100585497676
7176 5.709245824955917 -1.5280415667537179 9.0270676786051673 34 34 42 0.3839158295056741 58 5767 66 5406 54 4884
7177 8.5658114789365243 -0.63749937552160296 10.698377132358738 79 88 85 0.62774424035046938 58 7729 59 7775 54 4969 50 1389
7179 5.7670578513030275 -0.03523357300916051 8.2313572859732584 83 86 67 0.85204905261386499 71 11720 54 5038 57 6342
7180 7.0241106545744145 -0.061543523956410558 7.7273875626785928 45 32 23 0.4461739892927245 57 6254 59 10572 71 11116 54 5048
7182 -3.7198115334993269 -0.30039300757991505 5.3251272352534027 161 162 165 1.3529203410717621 57 1871 54 5067 55 1523 51 6537 56 1904 50 5054
7183 -2.9813374318433832 -0.1883666056168074 8.1035215626916024 55 54 33 1.5564203123380478 64 11456 68 6845 54 5083
7186 -3.8377920914915249 -0.21455079465098575 5.3656696003622812 155 157 169 1.2900997310942681 57 6284 54 5139 55 1676 52 7651 51 5024 50 5053
7187 2.6765584829779439 0.34819634309070274 5.2997850213865139 50 57 39 0.40595693316977483 61 9483 54 5172 55 1750
7188 4.1962851853174881 0.46028843447178852 5.004163967537691 65 80 41 1.5971428917163712 60 12181 71 11806 54 5192 58 8767
7189 5.1332602171996804 0.45905728486855496 5.0858844912254257 73 78 55 0.82343737675250817 58 9189 67 11899 60 10826 71 12114 54 5195
7190 3.0758244359006079 0.50480909975366484 4.4941068128498891 91 103 67 0.74458393360982156 59 8571 67 12049 54 5244
7191 3.0231696119734468 0.52332233080536428 4.4064760906860796 44 56 20 0.65043075151909202 59 8573 54 5246 55 1762
7192 4.4165702089131829 0.61271979566418722 3.9759511110712307 99 110 76 1.6803306234955606 59 8594 67 11997 54 5256
7194 0.82255327487960628 0.7473628126646964 3.273412292525042 114 111 118 1.1481386146940757 57 2485 60 13245 67 13028 54 5328
7196 1.1246809723198323 -2.2082826555256312 9.6073408263900522 74 72 73 0.67270526088182059 58 8510 68 7144 54 6349 52 7426
7197 1.7946993802522022 -2.0257338317286129 9.523464201650981 95 89 91 0.81426565767147896 62 10590 54 6358 55 4627 50 6415
7198 6.5608550171022815 -1.5601295415438217 8.9214932180413857 21 23 20 0.17192184748552286 57 7893 54 6372
7200 5.7740580372385466 -1.3518685553077809 8.8845871626484971 44 47 38 0.75520064662305431 53 7399 54 6417
7201 11.595437503987002 -2.222702523151622 33.801094153212183 70 87 91 0.26017275114919858 65 10444 54 6447
7203 2.4042952737216368 -0.81533796073767828 13.690208145005089 61 63 63 1.1087641618021049 53 7461 60 13528 66 7213 67 13269 68 7303 69 12697 54 6478
7204 4.4281146105460047 -0.45632292250426476 10.636692748884016 106 66 58 1.5620577228538137 61 10578 54 6486 55 4838
7205 -3.7477168946963224 -0.33010136760890074 5.3313187437315683 36 44 65 1.0957674317165 57 6288 54 6508 52 7617 56 5592 51 6535 50 1473
7207 -0.87039690050916019 0.20305570608891349 5.8946487676346822 59 63 40 0.45469487432569727 62 10132 67 13420 54 6574 60 13608 68 6891 56 1966 55 1723
7208 2.6404287234815591 0.30884364785551199 5.2986175986056807 98 109 79 0.51016338556409924 66 7653 54 6581 51 7415
7209 2.6920351493531784 0.33046288439284782 5.4013949429649237 98 109 79 1.2286990724106159 69 11420 54 6582 61 10729
7210 -1.04702311276256 0.32793255674199218 5.1444704134907182 60 70 33 0.92225950712199811 53 8875 54 6608 55 1839
7211 3.4328801099360398 0.61981292336458071 4.054985201198118 75 78 52 0.99319784078252671 71 12150 54 6619 58 9216
7212 2.7434142319599562 0.93933013222273709 3.3689036379410542 179 176 185 0.76145815121267135 60 13190 61 11511 54 6666
7214 6.4451159790171229 -1.6031864690157127 9.2621225875391229 23 26 18 0.57614923401305096 58 9080 54 7124
7215 7.2007786920405916 -1.5635328303032103 9.1869334786573003 17 19 11 0.52836187390642586 58 8565 70 10423 54 7125
7216 -1.5014788903409975 -1.8152534145812655 10.424544543178646 39 41 38 0.26441770012256244 53 8291 54 7145 56 7223
7217 -6.0398025044666124 -0.94001501520922071 11.103195444417567 78 82 85 1.1815401228895928 58 8614 54 7184 52 8025 51 7331
7219 5.8241997850264431 -0.10979923864977528 8.414319922983557 46 48 34 0.7659710815327081 58 9425 65 11951 54 7227
7220 -3.8142075472446466 -0.27977573935325006 5.3258435368862251 144 148 171 1.3941408825165704 57 8817 54 7239 56 7345
7221 4.8270623349731112 0.04771568885203175 8.3451156078508326 74 76 58 1.6589350795899653 60 13542 66 7831 54 7260
7222 -0.45500219794197833 0.23698117371678831 5.7674456581771674 62 68 42 0.61728439969521964 60 13941 69 10242 54 7284
7223 3.7397117151881161 0.62286576046618036 3.9866105347967222 63 66 38 1.1826293342830738 59 12947 71 12458 54 7311
7224 1.446532907692615 0.64106211526444501 3.661046570936914 156 145 139 1.6322945527616555 53 9166 60 13955 54 7327 51 7455 50 5181
7226 0.81623548342931951 1.0690565496238549 1.0246432774730929 155 153 164 0.33588258315700298 61 9766 69 10480 54 7433
7227 -1.8904277391781494 -2.7042266636253918 10.147710382305871 143 141 142 1.3402777178623273 59 13675 54 7584
7228 3.0230405605108142 -2.4648757828669989 9.6263223342205446 103 101 104 2.1286067777306186 12 9650 54 7600
7230 6.4158568697939611 -1.9412432427791613 7.1683256719484385 0 0 0 1.8029839723623935 53 9014 58 9038
7231 -3.7062025414770106 -2.1823940941776243 8.6504848583906266 0 0 0 0.081091072564644359 64 13136 68 7190
7232 2.4012258785821565 -1.3363734279247557 9.9650619622662155 129 128 123 1.0158996152297854 14 13945 54 7640 56 8476 55 7146
7233 0.017906752135903165 -0.77604939661948025 9.8606545114833342 68 71 78 0.89284765476338557 53 9064 60 14079 54 7673
7234 5.02747475373436 -0.38636230972986446 8.8400999623915979 84 86 65 0.75978118774440184 60 13839 61 11879 67 13284 54 7677 69 13044
7237 -1.2347020943771176 0.42884746686056763 4.8422781413120193 73 70 51 1.1624242656125601 53 9360 68 7851 54 7724 67 13956
7238 -2.7310323114125983 0.45756789786563984 4.2284023218468425 111 104 98 0.12537298776478298 59 13561 54 7737
7239 1.0919665928790878 0.86421554563544445 2.7575299522796728 149 148 153 0.5006263284132525 60 14170 69 12829 54 7748
7240 -1.2127351257104686 0.9045122512945758 1.6485855705991064 151 156 164 0.2951870054958986 7 12075 54 7762 55 2058
7241 -1.2127351257104686 0.9045122512945758 1.6485855705991064 151 156 164 0.2951870054958986 7 12076 54 7763 55 2059
7242 -0.92944255112212215 0.95294244369619441 1.428498945707515 135 144 155 0.58844327746940284 62 10354 54 7775 56 2434
7244 1.0891302258638862 -2.3639760398396992 9.6740615095259361 145 144 140 1.9601545039860591 63 11464 54 7851 52 8465 55 7754
7245 3.5292796034289657 -0.83107134734899202 10.355488960696764 46 57 59 1.2103645797858362 60 14062 66 8085 67 13844 68 8112 54 7885 53 9291
7247 4.072249304213889 -0.03199221489292349 8.5864588350206166 127 126 108 0.85058456030230156 62 11425 63 10955 70 11370 54 7921
7248 5.3411176151522719 0.24185035263393212 6.6794793608750984 93 84 77 0.91536633190048367 59 13803 54 7924 51 8052
7252 -0.57728367212327281 0.98119746620625936 1.2330914996393567 102 99 106 0.72426333416085154 69 12920 54 8009 61 12105
7256 -0.6096564620399455 -0.98526575158855967 4.4940165049749048 112 128 130 1.8616220795497318 61 12523 67 14138 54 8074 60 14354
7257 7.0157693482888934 -0.40845579488035788 8.9934899562540078 41 45 48 1.5380562222283476 58 9809 54 8120 71 12408
7258 -1.1104967855323953 0.90667929171928818 1.7099581960762182 81 92 110 0.26310445150144485 13 10900 54 8182
7259 -1.6308830146076307 -1.6681739571395509 10.186913588482868 129 130 134 2.1351448440670238 18 11806 53 9588 54 8241 55 7970
7260 -1.6308830146076307 -1.6681739571395509 10.186913588482868 129 130 134 2.1351448440670238 18 11807 53 9589 54 8242 55 7971
7262 -1.2983274037202857 -0.41267892836959141 9.0180803438883963 49 56 40 0.54348559056546641 62 12128 54 8262 56 9025
7263 -2.423324398514306 -0.027722702390064548 5.1928473499890728 0 0 0 1.4417405901634819 59 14201 68 8240
7264 -2.5811622086130028 -0.016450016545489495 5.143027544672508 126 122 111 1.3964159569857559 59 14200 68 8239 50 8177
7265 4.3644006455042845 0.37907237000724864 5.6141798854651634 62 78 46 1.2294623046242941 60 14375 65 12724 67 14168 54 8284
7268 7.1251713783404913 -1.9651224709019792 7.1621830093349352 62 65 56 1.7258975351421573 57 9782 54 8324 55 7940 60 14194
7269 -0.53448875899936332 0.97573749743459881 1.2466875662976129 141 142 147 1.5463397222813393 69 13353 54 8354 61 12634 55 7678
7271 8.578962149004127 -0.16475160203326542 8.7307949872770489 65 67 56 0.44254942129556873 57 9948 54 8396
7272 -0.60119353423309074 0.38620461827438074 4.9591709563458481 101 114 84 0.67438098807153324 53 9734 54 8400
7273 6.0920099986258904 -1.4598825604631513 6.074796480444359 102 103 107 1.2403574567796358 57 9959 54 8409
7274 0.28979819471310264 0.82322638701064177 2.4737977917138969 117 114 121 1.521863495517501 61 12668 69 13432 54 8415 55 8087
7276 2.4223703885732784 -2.024079994841733 9.3462617561927654 0 0 0 0.63456890461392168 7 12531 62 12231 63 11666
7280 2.0958207592878106 -0.96022526285708765 10.054606710696357 42 66 74 1.1461854756897156 66 6525 67 11659 69 9743 54 1387 53 5723 57 1523 60 11946 55 1399 50 1341
7281 3.5171679187727323 0.34928619447397963 5.2095179846817752 61 78 43 0.88698562897484645 62 11455 63 10981 70 11118 57 9266 54 7717 60 13911 61 11929 67 13722 69 12751 56 8147 55 6543 55 7246 51 8062
7282 5.4976917625184445 -0.26008619034880609 8.5342558829777886 25 32 8 0.76784991859402185 66 1100 67 7383 58 2022 60 7876 61 2193 69 1307 63 6534 59 2368 54 1610 65 9332 70 8646 51 1777
7283 2.6778076503670065 -2.1454272182679968 9.3764690736267475 82 76 69 1.0642639524460089 8 13238 18 11333 7 11132 54 6365 13 9585 17 12232 10 10670 9 11898 11 8404 12 9236 16 11201 72 13079 71 11953 47 11235 60 13390 63 10814 62 10545 64 12698 57 7816 55 6238 52 7436 49 11736
7284 3.1897080988225786 0.37904424024543815 5.1716677747445114 71 84 47 1.3277099098649865 65 12508 63 11242 70 11388 57 9499 54 7937 67 14073 53 9625 69 13072 56 8548 55 7639
7285 7.1537242074583078 -1.5726121207481834 9.4455433816476937 1 7 5 1.4269072670910961 66 8062 59 13949 54 8059 58 9782 60 14199 67 13991
7286 5.4476676476179833 -2.3585094721563817 8.9438849379532801 183 186 184 1.2080333482106049 47 10862 57 5836 54 4660 9 11867 14 12142 16 10375 58 8481 59 11523 65 11074 53 7283 61 10123 63 9329 55 6243 52 7399 51 6309 49 10853
7287 2.7576484294179795 0.070015434115170236 7.5591894428743736 121 112 97 1.5261668616025581 19 11601 7 7110 54 5110 18 10794 53 5897 69 11414
7288 0.21115061294332374 0.60041941113031183 3.8106954238648707 78 72 68 1.0999950452720826 61 12334 68 8146 54 7964 59 13864 65 12642 56 8163
7289 6.1070086577850589 -0.076358347372595683 8.5925009003301938 12 17 7 0.93833255506344648 58 8670 57 6346 54 6497 60 12944 67 12751 59 11904 55 4930 69 12184
7291 -1.620933158074396 0.015971167352399278 6.7741973693502979 59 64 42 1.2242077480794242 58 9452 53 9336 54 7707 59 13817 68 8006
7292 3.5050929017238923 0.35301190210256422 5.1953269399293269 34 44 24 0.90087136660188993 66 7304 67 13723 53 8843 54 7716 57 9267 69 12752 55 6544
7293 -2.1693590516969961 0.47942676085582814 4.1190087651371723 76 72 71 0.75786356453093862 64 11624 68 6949 7 10644 62 8956
7294 0.88524878911236082 0.65534336593624443 3.7071489294586595 144 130 126 1.2279958926455063 65 12646 61 12337 69 13124 63 11295 70 11419 57 9523 54 7968 72 13779 68 8152 51 8096
7295 8.118954793185452 0.13114934933863584 7.2672570187955339 50 63 31 1.1896901720841921 71 10239 67 11793 65 9364 58 6128 54 5128 60 10526 63 6595
7297 2.3492657599514963 -0.9498434354653863 10.057649489831366 36 93 100 1.6594177328973978 18 10687 19 11500 8 11488 53 5724 68 5668 54 1388 72 12112 4 6461 62 8420 57 1525 22 10595
7298 -4.1722009934161965 -1.045190207517777 7.7067215724226132 125 114 108 1.5867641108887431 53 8782 54 1343
7299 -5.0627169601235984 -0.3078948405995422 6.5836572840225429 125 128 121 0.66279189006919315 64 10131 51 1864
7300 -4.3188671481939584 -0.362126087729505 8.0228084017529451 0 0 0 1.2927873627817181 57 1880 68 4283
7301 0.77432063670786178 1.0557507313063357 1.0729891076842721 61 62 64 0.6480433813681008 61 3987 54 2759
7302 6.8808633052742438 -2.2048226173793979 7.6399457871029144 75 77 64 2.2079652066786526 58 8484 59 11527 54 6278
7305 -3.4713997255817333 -2.213983265967737 9.1624876242391551 117 122 118 1.5413279004896137 57 8725 54 7109 52 8225
7306 0.010147404954620388 -0.22705110544236967 8.6352747422474003 144 141 126 1.2457424347620227 66 7997 54 7693
7307 7.9024072930798379 -0.037330521141400792 8.1073553364566209 38 44 32 2.7637551112983587 58 9636 59 13768 54 7910 67 13869
7308 -3.7765924288204928 -0.25559140748666659 5.3410641843315201 109 117 130 1.951292061262669 57 9823 54 8274 52 8829 56 9030 51 8407 55 8077
7310 4.7948368459413349 -2.209688624802546 7.6290006647100697 123 123 125 1.3472296964911992 58 10039 54 8423
7313 3.2079555163694846 -2.1490298013532918 9.2577826501863854 85 84 79 0.35307446032957879 57 1088 58 5672 56 891 51 4672
7314 -1.6112594866581391 -2.199116099286281 10.065955400915529 98 96 97 0.54528504329199012 58 5632 56 1122 55 1003 50 928 54 936
7315 1.3558195888205151 -2.2213605233535003 9.5168765435167177 80 79 77 0.77009573131286346 9 9711 56 1146 50 952
7318 -1.7934400534337434 -1.7726804219783221 10.290854129640902 35 34 42 1.4507555796127729 14 7807 56 1425 50 1128
7319 1.2862609774499087 -1.6662970458763278 10.146947612912991 143 144 149 0.64944985929182042 53 7388 56 1441 54 6410
7320 14.79169151512243 -1.4171630195336331 23.058568046509354 0 0 0 1.2613123202128098 61 9114 63 9600 70 8485 69 9774 56 1464
7321 -0.12291967949329533 -0.85563641968830695 9.9504486615764804 28 38 47 0.78615774725247911 57 1698 62 9810 65 10513 56 1616
7322 0.19404774769496369 -0.66901260587621803 9.5772103299800779 23 37 42 0.56717492707950579 57 1702 64 11277 65 11408 56 1617
7323 1.2861472314515046 -0.80097358316527822 10.355816018911593 174 187 193 1.088878115762733 9 11989 56 1624 55 6410
7324 3.3109930247103052 -0.6782016822764303 9.8940320051093931 136 141 134 0.41415743740533895 61 11379 56 1636
7325 4.1981620225911609 -0.50172996401557857 10.728456432634919 67 37 21 1.0733097548435229 62 9838 64 11305 68 5689 56 1648 65 9303
7327 -3.3638009250165131 -0.51275417387623834 10.674053353700678 97 92 88 2.3744475967010672 62 8722 68 6776 56 1783
7328 -1.8625103061990798 -0.61385341884495948 9.15606948743239 28 38 14 0.76223639949372335 68 6700 56 1799 51 6480 50 4943
7329 -0.26611201483166114 -0.67780835727095146 10.521271482502122 78 120 131 1.2640175752511176 68 1333 56 1820 52 6763
7330 -0.5075074480538676 -0.34077262439000794 10.20013185621068 65 63 48 0.40195186331714955 62 8579 64 11384 56 1823 65 10702 57 1926
7331 4.8598868894781964 -0.025894305369549113 8.2590879942721127 92 90 78 0.66517566132853345 61 10585 69 9953 56 1844
7332 -6.1666000995611174 -0.19017083444376232 7.6711195424183307 0 0 0 1.8325068343039987 62 8834 68 5888
7335 -2.049780527396492 0.34009792697700308 4.9111942610399995 58 62 39 1.7746957636158378 54 5216 62 8961 56 2105
7336 -0.20024709265481766 0.56749565672302726 3.8987321099621095 101 92 83 0.75251179293898052 57 6582 62 10184 56 2133
7337 3.8527732330561308 0.83491835441107709 3.1440330594489123 104 98 86 0.27986826669364095 59 11025 56 2173
7338 3.8013648537918034 0.87583593383393521 3.0177524515624166 196 195 187 1.2241656545450867 57 8197 70 10031 56 2174 63 8846
7342 -0.78100205763679809 1.3794507335058415 3.980022628551557 83 81 86 2.4457516506547892 58 8194 56 2387
7344 8.4335138509099661 -3.2743462642062786 6.7516250351699494 66 65 61 0.3597880937786091 57 7594 56 4667
7345 -2.8437766590478439 -2.5026178291404246 8.1847481629085905 39 48 29 1.1741628932259547 54 6269 56 5089 55 4480
7346 -2.2426999843529929 -2.576610301120501 9.6828157534766248 0 0 0 1.741879864154378 9 9658 64 11918 56 5097
7347 2.6968836946318548 -2.431883328655903 9.2133403402973872 147 147 145 0.90449258226822282 10 9517 56 5111
7348 3.5010616802794985 -2.2990322615436565 9.2202073011102463 155 153 158 1.0860548246967858 59 11606 64 12704 56 5118 55 4499
7349 0.95946621918215347 -1.9496111499537885 9.6629193096781112 141 140 138 0.57070164622798703 58 7640 56 5250 52 6618
7350 3.2103567648585396 -1.5703225860359113 9.2764941677711956 54 55 49 0.14268325693287887 71 11985 56 5263
7351 5.8220169908901811 -1.4827758168432952 9.2316068880843485 30 31 35 0.88420827014234638 16 10481 58 7651 56 5268
7352 4.1591425424490245 -1.0496851172719224 4.9479566462122628 29 34 27 1.1480817948324735 54 6375 56 5269
7353 -2.5534220824569887 -1.1483625040763203 5.0662353022895692 140 149 156 1.0115859131314167 53 7364 57 6027 56 5360
7354 -0.50242906363078776 -1.0457018831619822 4.7167014265280054 123 135 133 1.3102617793572116 58 8546 56 5375 50 7361
7355 -0.17060507468686098 -1.7222395219217168 10.371458415504545 144 148 149 0.21452516741544778 53 7387 56 5385
7356 -0.16500372316181405 -1.7143838828818785 10.274975149571492 144 148 149 0.54266412983617707 47 10344 56 5386
7357 0.3654375099653826 -1.5745712283916662 9.6180837207342762 35 36 40 1.7713326908980767 4 4268 56 5388 5 7072
7358 -2.3845294846022411 -0.92884443360063207 10.878780554482153 133 142 147 0.005119876147140219 53 8341 56 5449
7360 -1.8359147819517583 -0.26458710502573224 9.202702270465501 65 62 51 0.4116141288006146 68 6782 56 5527
7361 5.359607777615361 -0.043942674096371002 8.5216363785369875 92 85 75 0.63566453035442338 54 5035 57 8042 56 5556
7362 7.7037504556391267 0.31867499970804819 6.0126505100977656 147 154 146 1.3280018170555909 57 8062 56 5569 55 1615
7364 -3.6663799063426357 -0.35573381655092545 5.0141341817826062 0 0 0 0.30242778819809896 64 11334 68 6826
7365 -3.7519150668272512 -0.16004939234084398 7.1687982595688551 49 38 34 1.0079463258049199 54 5077 56 5602
7372 -1.3758181236721077 0.59325566588002943 3.6497533227563532 0 0 0 0.6281702948575536 62 10988 64 13320
7373 0.015846220410058516 0.6525056385219139 3.8333875088860632 157 153 146 0.58300078977565961 61 11993 56 7415 69 12822
7377 -2.4442541287017456 -0.97551303719184812 4.9392009995018169 0 0 0 0.017732933261762091 64 13175 68 7947
7378 -1.873803457921343 -1.3436836383047914 5.800576234754959 0 0 0 1.7976537159802173 53 8757 64 13399
7379 -0.5043809862784715 -0.77978391756754362 4.7026673600460942 86 108 105 0.55231192788364969 72 13549 56 8063
7381 -0.43991108949186786 -0.94187994670520669 4.6720405416931374 41 50 50 1.7606711614882531 62 11671 72 13660 56 8472
7382 -1.8715522362913553 -1.1261460886246881 10.61819003647352 48 56 59 1.426321980949435 54 8102 68 8102 56 8492
7383 8.0631908648498651 -0.16912529531793474 8.8712357971145703 60 60 49 1.7670505964635133 58 9635 70 11034 56 8502 55 7588
7384 2.8089051867617276 0.13230495421223959 6.0245604873267764 72 82 57 1.1258888967141791 58 9826 70 11655 56 8526 62 12049
7386 -2.4018898132859015 0.0054210268162581954 5.1951178425046605 128 124 113 0.7923411895935536 57 9682 55 7850
7387 -1.6307602979160614 -0.064099551680202205 6.5995662977296448 134 132 119 1.4739085192567858 57 9475 64 13464 55 7630
7388 -3.3492575637342745 0.4260622939340909 4.4610996640212974 109 100 91 0.88752471556009227 57 9510 56 8581
7389 -0.64142111052855832 1.174189516263568 4.4210034886773828 162 160 165 1.7319869800612362 57 9546 56 8589
7390 2.136726527325902 1.1220132680826949 0.8330355997628256 0 0 0 1.2037295411140383 57 9853 63 11312 70 11436
7393 7.58187889241922 -1.6818909461929652 10.293663381788001 37 42 36 1.2543549958141813 65 12680 70 11605 56 8724
7394 7.1421272090749666 -0.56140556664644625 9.316663117583122 71 79 66 1.8861706521994477 65 12704 56 8766
7395 4.0474321381010752 0.19228980662342199 6.8993597624385306 64 80 51 2.3393239419550049 60 14372 70 11552 56 8787
7397 -3.8768902336423086 0.11569350537662774 5.4066872129948953 120 118 104 1.9361359131302058 54 8286 57 9838 56 8804 55 8014 50 8185
7399 -2.2393944625464992 -1.9703580313099114 10.891595592729436 36 37 33 0.67088680295420022 53 9454 54 8069 56 8896
7400 2.5676630683795159 -1.3697295489927772 9.8459347247822535 35 37 32 1.4840479284346408 54 8088 56 8904 52 8647
7401 10.592788148997766 -0.59554815769649305 9.6449630779284998 31 36 36 1.9386448435628794 65 12697 56 8912 69 13311
7403 -4.4524507104637197 -0.56581734557204966 10.054080138009921 37 28 24 0.79558140881821215 53 9607 54 8113 56 8930
7404 -3.6101161922605645 -0.48862269892367549 9.5851627971894686 46 42 33 1.8276976955281341 53 9610 54 8269 56 8932
7405 0.56159415140762592 0.73149411380768292 3.2470265047732108 96 94 97 1.8231003570356041 62 12072 64 13776 56 8944 55 8088
7406 -2.5618568006722895 -2.4904437825662478 8.7531068731412116 129 129 129 1.3146496374052647 54 8323 57 9781 55 8044 56 8987
7407 7.0302404722256524 -1.6082339383404902 6.5317122768190812 77 82 76 2.1389701019854654 65 12736 56 8988 55 8052
7408 0.76758370031000611 -2.2731303015429649 9.6092470382545958 141 140 136 1.0071980028551895 59 14211 64 13720 56 8990 55 8046 51 8465 50 8231
7409 9.5623811417698157 -1.1699829110937265 9.5162829311542048 37 41 42 2.3553274098587478 65 12683 56 8992
7410 0.287518728827241 -0.71124568715516578 10.056998400757553 75 82 88 1.9254369618870086 69 13424 56 9012 55 7981
7411 -0.10325518013720363 -0.072868114104693807 7.1964819822222683 76 88 64 2.0678525906585534 57 9892 62 12136 56 9027
7413 0.011998752321038598 0.92728812687560558 1.7067634726414038 99 97 102 0.5186986054055609 69 13447 56 9035 55 8141
7416 0.29968945521827312 0.23911626522885979 5.7078499769880757 145 136 127 2.8221323553526423 62 12204 64 13803 65 12817 56 9075
7418 -0.3826475323879362 -0.37709268829674381 9.7896470040246282 129 131 126 0.54747816352001422 57 9951 62 12196 56 9101
7420 2.3429805461163786 0.35749996053493283 5.6289041037330803 145 136 127 0.18671663259480839 57 9962 56 9103
7421 -0.42980103785762241 0.67216188901303053 3.4776359686869616 100 100 100 0.38470060833142827 64 13805 56 9108
7422 4.2067665035434763 -1.0458342864178254 8.5559413036391305 44 56 56 1.2618657087001095 57 9991 56 9160
7423 1.8154413906917848 1.161809088089597 3.814178863879206 96 94 97 1.753911186541492 62 12246 63 11672 65 12829 56 9161
7424 -1.800253180373194 -1.7711914721568376 10.24169582003508 0 9 5 1.8853403654455141 13 8890 14 12240 56 1424 10 1338 11 1145 12 5441 8 9902 47 9230 62 8210 68 3825 54 1161 58 5743
7425 1.5205266030129709 -1.4975650039886377 10.148745128127315 23 26 25 0.76654885897569114 70 10514 72 12051 62 9709 56 1445 72 12705 69 12007
7426 2.8219771419959163 0.081695365420962382 7.104042601854192 77 89 68 1.9191329570476892 71 12689 65 12797 63 11638 70 11769 64 13790 57 9929 56 9072 58 10029 56 9102
7427 0.65178843814020071 -0.45914745714914246 10.124262842184894 71 67 55 1.4016349881262207 62 8592 71 11746 72 11352 57 1710 56 1830 72 12797 65 11975 58 9122 61 11914 60 13869 67 13687 69 12740 70 11107 63 10949
7428 3.9321485457114997 0.899098645387019 3.1167295280332281 92 79 90 1.1047690897570603 71 12343 57 8198 56 2176 65 12071 63 9894 70 10034
7429 0.12645040316733536 -0.71514183147533483 9.8753939202465251 11 27 37 1.5251542847643609 66 7976 60 14081 67 13877 61 12281 69 13208 53 8795 68 7978 54 7203 56 8065 65 12469 62 11736 57 9226 55 7170
7430 11.661843761758343 -0.021555395800210229 6.8524823032379176 0 0 0 0.48786831810934617 65 9064 70 8424
7431 -3.8517025418338258 -0.94066598169488991 11.005337777546288 8 11 16 0.60075196510627682 57 1670 56 1772
7432 -3.7372543259018807 -0.14104753025416422 7.3462723386228719 27 34 18 1.0499868324873012 59 12124 56 1921
7433 6.7456221505804388 0.63915241013761026 3.9243467537160051 77 84 66 0.099565178856312483 67 11930 56 2046
7434 7.016230731136428 1.1008674932114024 2.4308843428452209 0 0 0 0.044412060211823264 61 9449 63 8813
7435 8.8459353980665743 11.391143358333336 61.825118835165476 0 0 0 3.2526837614402018 59 12303 70 10790
7437 -2.4959796753257226 0.07148851478010608 5.1291094478200252 0 0 0 2.4382905865812963 62 10110 64 12947
7438 -3.8448504924031823 0.15459136919362979 5.6121183738099329 133 130 113 1.8442381574218416 54 7293 56 5664 52 8102
7439 7.4059276245815573 -1.6238736995459666 12.148935931355423 78 80 77 2.5184812481478747 57 6069 62 11272 56 7233 65 11216
7441 -6.1979597230990562 -0.48084403939214282 7.8533889579521077 0 0 0 2.1809024240190658 62 9978 68 6744
7443 -3.6573073389730135 -0.2252853446057721 5.9520198739864494 59 41 41 0.80758134636914192 56 9146 55 8206
7444 3.6922313058396186 -0.70404128428976043 6.9460943157627302 44 55 59 0.41156399684147194 54 8455 56 9168
7445 3.0246566573963691 -1.9056539028055763 9.3578836556071483 92 84 85 0.76793485088495761 13 7561 19 11408 17 10646 18 9765 14 7742 16 6536 71 9916 47 9175 66 5322 60 10081 67 9772 65 8796 61 6299 69 9472 63 9406 10 8455 11 6676 64 10996 59 7450 53 981 68 5361 54 992 8 11262 7 8997 3 8408 58 1254 52 5006 51 1203 49 10044 38 635
7446 2.1038222074379105 -1.5017601110054986 10.010193828921469 173 193 187 0.99815085788602953 18 11080 19 12211 17 11964 14 13062 10 10342 11 7813 16 10472 8 12909 7 11206 1 10007 72 12666 71 11588 47 10955 66 7116 60 12853 67 12579 65 11866 58 7679 70 10464 62 8237 64 12068 68 7203 54 4881 56 5391 69 12015 63 10360 61 11238 66 7115 53 7392 55 1245 51 4853
7447 2.4684657573958493 -1.608084634197257 9.934963232113379 201 200 189 1.1136284152070439 18 9807 17 10727 9 9846 10 8507 13 7625 14 10781 11 6753 8 11422 53 5586 54 1175 60 12792 66 7117 67 12580 61 10331 69 11113 68 7204 55 4756
7448 5.5061386053151695 -0.5240364222393028 9.4912216683156441 14 20 17 1.6005303839936154 13 9684 16 9328 59 13426 54 7220 71 12045 66 7788 60 13838 67 13621 58 9125 61 11305 63 9688 70 10529 62 10737 57 6240 56 1653 55 6430 51 8037
7449 1.5583068528530171 -0.76865320347327259 10.174907157674934 156 161 164 1.5638971850500669 16 11296 8 13318 7 11727 47 11273 13 10188 18 11547 17 12450 11 8820 12 9712 5 9914 4 9005 60 13831 67 13651 63 11196 70 11342 62 11362 57 7979 59 13418 68 7742 54 7211 71 12298 55 6415 20 15281 39 7392
7450 -1.0135220962273255 0.36333178675294914 4.9499920966798738 29 32 12 1.6204107647994086 72 12392 64 10369 57 2262 68 6071 53 7781 67 12148
7451 2.3137419219268849 -0.77085179605465337 10.090836910174602 54 52 59 2.089712959182374 1 10653 60 14061 67 14038 61 12563 69 13327 14 14182 63 11504
7452 4.0606276738732001 -2.3984789876346722 9.1111306696432681 155 151 150 0.74103157767368755 53 7281 57 5833 55 800 51 4681
7453 -3.2064645736459041 -2.0930241375111978 9.0039840867722116 137 145 134 1.2516100399259031 54 922 55 988
7455 -1.9158150125667546 -1.819115323282553 13.662776236611622 97 105 111 0.69987390366036606 13 7673 55 1238
7456 1.7958610662500392 -1.1216533252744774 10.027551185512092 128 153 160 1.2097138092217803 58 1754 66 5524 69 11191 72 11147 55 1243
7457 3.3638316987307681 -1.5256132719796713 9.9208510837179382 64 70 68 1.5158788454116969 64 7163 65 6603 55 1247
7458 -3.6966320999634932 -0.8907936248420536 6.4508002842943304 73 64 55 2.1437235559157437 62 6439 55 1357
7459 1.874087497939706 -0.64364119999320957 10.16283480770857 98 101 85 0.44673469905960739 57 6220 55 1397
7460 3.9561265012744102 -0.82442841963997948 9.6242446467914124 71 76 82 1.1126852695249079 64 12146 65 10443 55 1414
7461 4.3418682139431573 -0.60432412637192034 10.016154461683362 29 29 19 1.2038032775176197 69 11319 71 11674 55 1418 72 12814
7462 11.849880807277515 -0.076631750102524987 6.657213652733911 101 125 125 0.28298954001620158 56 1528 55 1494
7463 -5.6666655852832353 -0.41554512574225599 7.3388143685538889 28 23 19 1.6041086154916018 54 5063 55 1516 51 6523 56 7344
7466 -1.2022706533604552 -0.36469031097780846 9.0693559532285857 46 48 34 0.65505340411164104 60 13555 67 13354 55 1558
7467 -0.95275832367110846 -0.40192073065210521 9.6484287089106182 36 36 24 0.49548285552024052 54 5008 68 6791 55 1560 50 4951
7468 -0.14853986872408345 -0.0045334239319794736 6.1253730939158997 50 60 35 0.80441680823274264 61 10721 67 13402 69 11475 55 1575
7469 5.6263603295958049 -0.0020226236593054447 8.1280529022923353 68 65 48 0.37437362667497798 57 6345 55 1602 50 5091
7470 7.7037504556391427 0.31867499970804947 6.0126505100977825 150 157 148 1.3280018170556072 56 5568 57 8061 55 1614
7471 7.6122196075594371 0.15956504358924917 4.5457835189537361 149 147 134 1.2404397540548784 56 1711 55 1632
7472 -5.6825465015463994 -0.16140706277159908 7.3338081041766534 85 88 78 1.4589297417996236 54 5138 55 1672 52 5292
7473 -3.7293643751004635 -0.21586274783817924 5.3441012542630677 141 150 145 0.742348261662511 56 5594 57 6289 52 8086 51 5026 50 5055
7474 -3.8083392405949721 0.070948286539203223 5.3918345147917135 124 127 116 0.19322948236999282 57 2033 55 1680
7475 -2.4432678034873745 0.014778071819992302 4.9859168413712105 30 27 16 3.0271024608465842 62 8867 55 1698
7476 -2.5211099055644728 0.045195316090168913 5.2987650892884384 161 159 144 1.3166470086214623 59 3586 55 1699
7477 2.7208916061073363 0.24070971812761915 5.9284009317216801 106 109 90 0.85263743211236387 54 5167 55 1748 60 13057
7478 -1.3261687384662184 0.52423664920877711 3.8008464196829759 158 151 141 0.00079363297771495225 62 8968 55 1833
7479 -0.39771649598710179 0.57014681515623011 3.9165836085280339 105 97 84 0.62086948303659217 60 13681 67 13476 68 7528 55 1843
7480 1.6983632414317495 0.64407258350345054 3.546347688285544 169 160 145 0.62452317342499941 54 6644 55 1851 60 13637
7481 5.7064738119959957 0.97551250538046319 2.8706939263748628 146 142 133 1.0873542220040182 56 2204 55 1893
7483 -0.13293470542124103 0.65124429584740506 3.6516549555918862 58 58 50 0.61757234857636101 60 13683 69 10319 55 1957
7485 0.39057245602166885 0.88450363553389122 2.2153887254056537 107 105 108 0.29293987478475897 70 9126 55 2027 63 9029
7488 5.559266710239231 -5.3308917184125493 14.272367747819855 78 79 74 0.26933919947277229 54 4445 58 7439 55 4160
7489 6.421892919551544 -1.6080021769020865 9.235045216270974 33 34 26 0.19073995855208883 54 6371 55 4647 52 7477
7490 -2.5917163380078572 -0.88013278714036169 5.1251230879442033 35 41 41 1.0798154894066752 53 8783 55 4734 51 7311
7491 0.3701460739985194 -1.7247973462465471 10.033560406962694 35 36 38 0.72092024716613101 66 7530 55 4751 68 6481
7492 2.7283787309588328 -1.5902384770865954 9.8203583282945033 137 140 133 0.31971622873598066 56 5394 57 6063 55 4757
7493 4.1497879977127043 -1.5192189940592884 9.5209651985018038 147 147 147 0.35004063659892115 67 12589 55 4759 60 12798 54 6413 50 6490
7494 8.6723992307437801 -1.590624128322764 11.999871708009939 194 198 181 0.66810637944179652 54 4891 60 12808 55 4766
7495 -1.7365676562596286 -0.63059650674366485 8.9758723020073496 37 50 20 1.4852257638841764 53 7512 59 12854 55 4815 52 6757 51 4957 50 4945
7496 -0.91856208186773458 -0.85359509746758255 10.325708017126932 146 153 151 0.29413162988992275 67 13678 55 4816
7498 4.1619397373035865 -0.44487097983982032 10.820833955260085 0 0 0 1.6310478404359194 67 12736 68 7784 69 12167 60 11961
7499 5.0208094368756173 -0.28876953168999137 8.3729255007021859 75 84 52 1.5352382702634098 54 7223 67 12743 55 4843 50 7426
7500 7.0702170406777585 -0.62035766723960672 9.4939839730581959 95 98 91 1.3055034409693291 56 5478 63 8373 55 4853
7501 -5.1870438825223646 -0.42288448652841559 5.9159777788245487 15 17 30 2.3592988066871929 54 5060 55 4882 50 1450
7502 -4.4823054067573738 -0.38880833678906618 4.4834953688202184 15 17 30 1.9020567242301809 62 8670 55 4883
7503 7.170959191312015 0.4443146452006308 4.8325893528004453 80 64 59 0.33832364749530403 56 7337 55 4950
7506 -1.0083103297660212 0.3133291093120848 5.3226363246170436 98 106 69 1.4060988562531702 68 7837 55 5008 54 7302 60 13953 67 13750
7507 -1.4410330415205821 0.29777750477840692 5.0924811852709615 97 109 73 1.1705677851324159 68 7477 55 5054 54 6604
7508 -0.85758658725789394 0.35493933756980295 5.1136538369641897 69 75 40 0.77941030507769071 59 12971 55 5061 51 6632
7509 3.1279540331102593 0.78690853160432017 3.637668285291181 102 93 81 0.58165469092923827 56 5695 62 10972 55 5079
7511 5.9059683057222809 1.0066798355476447 3.0432693441844632 0 0 0 0.61912962780815661 56 5707 69 11506
7512 6.4553933697554058 0.99969658372129178 2.5458212485630454 152 147 143 2.4853153718411871 70 9962 55 5098
7513 -2.0884681910855334 0.54217961497919775 3.9576043177735651 181 177 178 1.3583805320067919 68 7523 55 5107
7514 -1.1606021857841815 0.95214800144546685 1.3955172816643127 148 167 181 0.055006632315660137 7 12364 55 5203
7516 -3.1846223866688481 -2.1834019880313686 8.9586694900359163 96 104 89 1.5125609436785765 54 6339 55 6309 52 7947 51 7201
7517 -2.2637933424091399 -1.9773690249686069 10.579781766213793 36 35 31 0.071328922515048271 56 7220 55 6315
7518 4.8225417905835712 -1.6627562626807624 9.4274897589655602 28 29 21 0.45884418287580142 57 8763 55 6330 50 6492
7519 6.0018329247122919 -1.1825734417925939 6.2705010708711306 36 43 25 0.28347014579817414 70 10424 55 6332 63 10263
7520 -2.5031100326665219 -0.96430809104520299 5.0916686384179517 125 140 143 0.65774725273366497 53 9060 54 7165 55 6364 52 8003 50 6526
7521 17.111069792692387 -0.30855473473480366 21.040033831272854 95 76 70 0.56486311282676049 56 5482 55 6441
7522 -1.2720419709250859 -0.11188915047181354 7.0855218134935525 138 136 121 1.3711575408917944 59 13505 55 6482 50 7451
7524 3.0636177040449839 0.38456403636372039 5.1406936351653139 63 79 40 1.0611923603434716 61 11450 62 11764 63 10979 55 6540 70 11387
7526 -2.4448235979329223 0.36894146081258417 3.1936015599699248 102 94 81 0.46638996173281644 56 8190 55 6584
7527 -2.4012673917774663 -2.6805892951990375 8.4322682771467932 142 147 141 0.24574528068207691 56 7948 55 7031
7529 -6.1416794180063352 -0.98301915493818859 11.149171707968941 36 40 41 0.10043221334907305 58 8613 55 7165
7530 12.347572152590184 0.075233672596489137 7.2954148446117291 0 0 0 1.0322147725658508 56 8090 61 11339
7532 -3.0480612250874533 -0.76556126110842004 11.550969976969292 64 65 57 1.175008814123887 59 13784 55 7200
7533 7.851521537678785 0.33038495476325397 5.1136429744205802 0 0 0 0.71328617025431362 61 11417 65 12299
7534 6.4801001657366131 0.79653139223068337 3.8657683207944831 74 74 53 0.75868846779082033 63 10963 55 7256
7535 -1.7070424746844379 0.38847711228113985 4.8852576119283935 71 71 43 0.76556866838405002 54 7943 55 7263 68 8139
7536 6.1539847624465995 0.9708941793410818 3.0093024903374692 113 105 92 0.25267226578326252 56 8179 55 7285
7537 -3.4430509631962503 0.41908559891668262 4.4464138611207691 103 96 81 0.66224036420262711 54 7956 55 7289
7538 0.43124116507905108 0.74259491322753579 3.7795211627273484 95 94 92 1.8256578119750191 17 12696 55 7296
7541 3.8883178124345847 -0.92519930313752285 9.7713969598724137 47 52 58 1.8336396104286063 64 13564 55 7581 65 12584
7542 7.5871182751938635 0.068764527114806684 7.4593050328488699 66 78 50 1.2290350183489538 56 8507 63 11398 70 11351 55 7623
7543 7.6122266190560275 0.18524648726082027 4.36772421889673 38 29 22 0.66084105348557598 56 8514 55 7625
7544 4.3618179521673106 0.85989442481037037 3.2567153196899588 109 102 92 1.1666618620723053 61 12312 67 13923 55 7656
7545 5.3301783076674818 0.90630663680567203 3.0090042688685701 109 97 85 0.3506128562447306 56 8570 55 7659
7546 -0.36401104946918222 0.83418411782494362 2.355503874916248 170 168 171 1.2529708334139946 54 8174 61 12581 68 8289 69 13346 55 7666
7547 0.28469929486638867 1.0499401247725983 1.171726808639814 161 159 162 1.6053446975535255 57 9908 69 13275 55 7672
7548 0.28467640931979327 1.0469226721545142 1.1688255882060699 161 159 162 1.7287321454408948 57 9909 61 12503 69 13276 55 7673
7550 0.51603439478876822 -2.3892748450587935 9.7748818255041012 148 147 145 0.34613508738640864 56 8699 61 12516 55 7753
7551 1.7819693268437884 -1.614536672576395 10.028305329478183 0 0 0 1.0380161569693009 59 13957 70 11614
7552 4.8605856161016918 -0.79689990592784443 9.7893030263800007 51 63 63 2.8031149466156537 60 14226 61 12427 55 7821
7553 4.675484019109895 0.31615539493823647 5.7128667283810675 147 139 126 0.83318589608978288 59 14013 61 12478 69 13243 55 7842 50 8034
7555 -1.7112539026783109 -0.060597109693953689 6.8779558579575841 132 126 114 1.5571678077606994 54 8137 59 14129 55 7854 68 8241 50 8023
7556 2.5533322387060062 0.35477367915244173 5.4748507079015818 90 84 72 1.1006971819432034 53 9511 54 8148 55 7860
7557 6.5327120927640987 0.6909593048453625 4.2496252810516442 132 131 111 0.92949884533913218 70 11563 55 7863
7560 -1.4489417362354617 -1.2448856622306763 10.608364489348583 49 58 63 1.3016607391619062 59 14174 55 7979 50 8152
7562 -3.65492300782575 0.10065429577401558 5.3371139133086531 124 120 108 1.2150523869214853 57 9831 55 8005 50 8186
7563 -1.9004958867185937 -0.026903713434013717 6.8904031128290377 0 0 0 1.0614415104156909 59 14193 62 11923 57 9685 58 9933
7564 -1.8742256530220651 0.56404784575570299 3.6217306033736936 94 89 93 0.79760582852086503 13 10864 55 8016
7565 -2.246243256594135 -2.4861020355055792 7.0750891604040138 78 94 57 0.92596994658532772 56 9056 55 8039
7570 -2.833227942777075 -2.4459681756747185 8.49125499320321 77 89 65 1.2150752783804135 54 8393 55 8155
7571 7.9125982678594964 -0.0050467463555905609 4.7752732347213458 0 0 0 0.38837690382345108 56 9098 69 13441 61 12683
7573 2.5811030764655873 -2.1010747904309883 9.7196024808927071 135 131 128 0.78044575219018153 64 13820 51 8569
7574 8.1054161331806611 0.55952847059895217 5.1612634786415441 0 0 0 1.9489771908603362 56 9137 61 12701
7576 -0.29992769819251025 0.16360017961527182 5.0027519444350794 66 81 50 1.3576903659772213 60 14487 67 14273 55 8214 54 8442
7578 1.180920998048725 0.38538765157677901 6.0461388852070739 149 142 132 1.1207049171248376 59 14291 55 8230 50 8373
7579 -1.2504246340193024 0.1302445504793619 6.2245647251461351 37 33 10 1.0797807404258568 13 9057 12 2045 55 1715 62 10122 64 12379 57 6395 56 1959 54 6569
7580 -0.76407905732191161 0.1659771787522302 5.8578879795232046 22 29 8 0.81576231049706016 67 12943 61 10767 60 13127 55 1727 69 11514 59 10834 51 5093
7581 1.8595750573523737 -2.1940626619003618 9.4824935195607427 158 155 149 0.75496907561815774 13 9582 17 11908 9 11144 10 10272 11 7705 12 8473 72 13076 55 4494 58 7568 53 7322 56 5110 52 6553 51 6297
7582 1.2446465409411154 -2.1999633465866406 9.55828442426645 106 104 107 0.8384250182181916 10 10266 71 11942 66 7488 58 8511 17 12229 14 13591 9 11893 60 13382 65 12189 69 12548 63 10800 70 10952 55 6319 57 7808 53 8264 54 6351 68 7147 56 5251 16 10409 51 6293
7583 2.4198993805918745 -1.3318460202276043 9.9745792503642896 163 167 166 1.6197389706641128 13 10427 11 9023 12 9933 16 11936 7 11991 8 13490 1 10631 2 10651 72 13544 71 12385 47 11544 66 7924 60 14035 67 13822 65 12434 58 9379 61 12206 69 13168 63 11368 70 11498 62 11674 64 13405 57 9189 53 9050 54 7639 56 8475 55 7145 52 8262 38 13833
7584 2.4927643995568753 -0.79646944285890453 9.9992150240155571 38 39 54 0.80903432405343723 69 12700 70 11066 62 10724 71 12039 72 13148 64 13232 55 4830 60 13485 67 13272 65 11938 61 11371 68 7308 49 11985
7585 -6.7070882970464636 -0.37904132943196633 7.1870530752160455 0 0 0 1.9148202566589934 62 8813 68 4393
7586 -6.7070882970464636 -0.37904132943196633 7.1870530752160455 0 0 0 1.9148202566589934 62 8814 68 4392
7587 -6.5942464305631479 -0.37057139921658377 7.1625180466958476 0 0 0 1.3806838496381002 62 8816 68 4395
7588 -3.3232750861610629 -2.2052494606094575 9.1081959939173256 137 145 134 1.7257875986589759 54 7112 55 6308 52 7946
7589 -4.0314502637749765 -0.62330711965691865 7.1972719076124987 89 81 78 1.6978180589468495 54 7186 55 7192
7590 -1.9972651685920695 0.37683275082456569 4.5225366218864238 146 136 124 2.5446393647904371 68 8016 55 7262
7591 4.6672441140178362 -0.41907237023759331 9.5187798705874176 69 58 36 2.8278440737848549 65 12711 69 13333 55 7987
7592 -5.7437687275948406 -0.42156929257289755 6.3734752812747875 0 0 0 1.0615491199344731 62 12039 68 8238
7593 -3.8107235734801259 -0.28998118327558475 5.1793784329745565 0 0 0 0.73205642951557182 62 12132 64 13704
7596 2.6449151830317748 -1.1272184823721649 9.4955322039568397 30 32 32 1.9530812609340575 54 8449 55 8223 51 8595 50 8372
7597 1.2517189082539686 -1.8263175432846361 7.4452321715506979 74 74 74 1.3225990529895237 58 973 52 1227
7598 -1.6120143915476548 -1.9188836845154058 10.20316244244332 121 123 124 0.65011764800254523 62 1634 68 509 52 1398
7599 -1.4995252077580354 -1.7967204239066337 10.418092232568323 17 18 20 0.095363431431952056 16 1192 52 1399
7600 3.5351166002678274 -1.6714443432655564 9.4538314777454655 102 105 110 0.39379485656918956 53 1225 52 1460
7601 4.1911008010119293 -1.7519911143227607 9.503936256372624 152 153 148 0.29110634544190417 53 5591 52 1467
7602 5.6107042301641563 -1.4826266755855502 9.5743892532909971 130 131 133 1.1431221287967066 53 1253 52 1487 50 1198
7603 6.4254592158236656 -1.5889757857135227 9.3121267179485478 92 92 90 0.52142384434161182 53 1266 52 1502
7604 -2.5123492485090591 -1.0181793106809771 5.1031422963999953 23 78 119 0.49645668308909313 53 1359 52 1623
7605 -2.4778143852737426 -1.026291716117544 5.0934177775100791 30 73 118 1.2942062580475624 53 5638 52 1624
7606 -3.4751919482679021 -1.6037676021625717 12.528572934942877 29 69 104 0.77222775959885315 58 1484 52 1625
7607 -0.69987596801733165 -0.66766032660559782 2.5732302605950697 4 12 14 0.025515712903066083 53 1619 52 1868
7608 -3.8279892104276403 -0.047490752337824398 7.0243197747057655 36 38 17 0.77664515887800323 53 2304 52 2340
7609 -0.54156109346584902 0.31489037831214622 4.8762498849700293 100 105 79 0.81016411571386404 57 2272 52 2649 64 11537
7610 1.0806889685460617 -2.4251758012920153 9.545769843093769 105 104 109 1.0189488599616914 11 883 58 697 52 4801 10 5845 9 6832
7611 5.0632985692207049 -2.4932475306466086 8.9298949186405352 110 111 115 0.63306237101406648 53 544 58 730 52 4808
7612 -1.6221367103311501 -2.3934967782825107 10.042920895830109 74 73 78 0.19237703346318402 58 5629 52 4875
7613 2.8194807079852273 -2.1414832966993953 9.354549696768931 144 144 144 0.5328226101935577 57 1085 52 4902 49 10834
7614 10.520940995051305 -2.8450740152560337 20.844752227070394 35 36 35 2.1676430468302232 56 1191 52 5010
7615 -3.4456154365790956 -2.0047506167972955 12.560200585330943 95 117 115 0.45703746525095201 58 5828 52 5050
7616 -2.4755018895055332 -0.99482273540688138 5.0752198143573919 36 69 99 0.67164399584315793 54 1141 52 5057
7617 -0.5888666738378795 -0.93460546693719704 4.682028189498423 104 138 183 1.4561623050146069 10 995 52 5066
7618 -3.8263116392027308 -0.38766008832763782 5.3444221205642801 18 27 69 1.7461213279727072 54 1714 52 5298 51 1869
7619 -3.7154762234350631 -0.40124550668039138 5.087249971985889 18 27 69 1.5613724983479691 8 7268 52 5299
7622 -2.3443791710111124 -0.033287253882319776 7.6024178828489424 151 141 130 0.54781162892221746 53 8424 52 5321
7623 -3.8382696649998396 0.17225315505929531 5.6615231781664672 141 145 122 1.1794987941629456 54 1999 52 5434
7624 2.5536559870856008 -2.1170324618366516 9.4011661063108534 110 110 110 0.60819250033421635 56 1172 52 6568 50 4731
7627 3.2719756751501166 -0.74105610804331179 9.6883438824103774 36 42 46 0.015368882236716119 53 7464 52 6721
7629 5.7799236800569114 -0.037258774744958839 8.3415689015980643 90 88 76 0.59787743113151715 66 6624 52 6835
7631 -3.8252695654647635 -0.34250776082344325 5.3492877677227595 23 37 82 1.0608595061430499 54 1719 52 6848 51 1871
7632 -3.6758886594250257 -0.34424208068331724 5.0506932824313759 0 0 0 0.68363792829962255 8 7272 56 1902
7633 -2.3354932073361074 2.9424956090655381 9.1997309007148331 100 94 96 1.8325985188937488 58 6605 52 7036
7634 -0.84718322308039651 0.55433458022357096 3.9505054872940777 116 109 101 2.5450316797423698 72 12457 52 7042
7635 -0.54871313617569817 0.59434236857753664 3.9106621251965863 141 131 129 2.1437155024323142 72 12999 52 7043
7637 6.1424661992156837 -0.086107529657397611 8.4502570843729377 38 38 30 0.9816069146343599 53 8379 52 7578 66 7231
7638 -2.1579462700555938 -0.37650242502216907 9.2367684756375255 87 82 76 0.64459151871134601 53 8823 52 7590 51 6481
7640 5.1049819060124255 -0.048560165475641348 8.965636754311646 89 93 76 2.3099693056713977 53 8812 52 7605 51 7390 66 7598
7641 -3.835427514224707 -0.291739861713111 5.3498153807896491 166 173 191 0.53259467134355354 54 1722 57 6283 52 7615 50 5051
7644 1.0014141525938318 -2.4810444247250909 9.6666959661584322 105 104 109 1.0740780944791741 61 12129 52 7920 51 7709
7645 0.99696091190619585 -2.478382115664084 9.6520823921770873 105 104 109 0.88002381230628957 57 9142 61 12130 52 7921 51 7710
7646 1.205838973288401 -2.1421480712028775 8.0739346449022182 98 98 98 2.0667119123084743 56 7960 52 7925
7648 -1.1860768322176802 -1.1919601147230874 5.1187699233586361 30 32 29 1.3565498346083782 53 8761 52 7977
7649 -2.3845305681858298 -1.0055067419294907 4.7575745913763843 0 0 0 2.2389479782423289 10 5921 54 4862 56 1391
7650 -5.8288156915034888 -0.96743196200894044 11.26075179138997 30 36 33 1.149865115669275 52 8027 51 7795 55 7572
7651 -4.6955837958294628 -0.9354706099640534 10.770973159421048 42 41 46 0.61453569314796053 54 7191 52 8029 53 8803
7655 -0.99848391910587309 -0.2229847698554864 9.1546922878545107 97 100 83 0.86799808710244919 59 12913 52 8070 51 6549
7657 -3.6589170054789824 -0.2401069953014531 5.0451362891018841 0 0 0 0.46273905919608427 64 12312 68 6831
7660 -3.0157513542262544 -2.1193951899922947 8.6802637832784537 56 63 55 1.0024521509392166 52 8227 51 7708 50 7323
7662 -3.4300814669343254 -0.34976164545962601 8.9044527311791128 68 76 54 1.6820202699009228 55 7199 51 7826 50 6557
7664 0.68977470443255118 -1.2558311592381799 9.956004070344914 40 51 57 0.57649105985983762 53 9274 52 8486
7665 -2.4553086768280883 -0.97537294547245845 5.0993052381788058 111 123 123 0.13806662654726631 56 8033 52 8495
7667 0.71856327073951465 -1.7424336375523273 9.8445364317926494 0 0 0 2.2484042310311225 7 12285 14 14400 13 10768
7668 3.3338123263085451 -1.7004498779417108 9.7217883344074014 40 42 41 0.775973803385824 19 12607 68 8185 51 8217 50 8138
7671 -4.233217542090622 0.39136184558319598 4.5961327785477817 109 100 93 1.8532877251595299 54 7948 52 8691 51 8078
7672 0.2141884059462304 0.59804314473266429 3.7994814342439613 113 106 98 1.5096796020208885 72 13709 52 8710 58 9685
7676 4.4410653072758661 -0.43772398501932752 9.3554961453504308 42 34 23 1.8677789042697539 53 9600 52 8767 50 8255
7677 -3.5705272331416276 -0.49129084677499885 9.4167242333582575 44 44 36 0.34168612277280347 55 7995 52 8771 51 8400
7678 2.8195995369951676 0.19292287777204109 5.4621632666506734 79 97 45 1.1253594770691224 53 9619 52 8777 66 8182
7679 -2.5795400444981209 3.3212399129367913 6.8793463689918859 156 154 159 2.4400661712040064 58 9872 52 8837
7680 -2.8572440695731962 0.040254934536896249 6.6646755854670232 137 131 123 0.03733114221921096 55 8006 52 8856
7681 -3.9714969732639953 -0.72319830704367383 7.3218654485997199 130 120 111 1.3758373611579722 54 8374 55 8161 52 8872 56 9069
7682 -1.6342937708355103 -2.1381270618120869 9.8646866323794953 141 140 145 1.459069639563765 10 11324 16 12305 64 13819 52 8881
7683 1.0185655123111252 -1.4943079953560923 9.9728730617264727 40 48 51 0.027418976620584366 53 9733 52 8882
7684 5.904567093991786 -1.3354010521007147 8.7800801270218614 36 40 41 1.9516307053995705 62 12233 52 8894
7686 -0.93335027691904249 -1.1925821127112219 7.4741829365940191 40 51 55 0.71490473649041864 55 8218 52 8900
7687 -0.95808494416262113 -0.86207052245575888 8.5566763007219375 39 50 54 0.86221633819270926 58 10056 52 8907
7688 2.0127740457554824 -2.0193115781655759 9.4950017448954469 180 179 172 1.4904768294600514 18 9706 10 5973 12 969 16 1064 47 6429 67 6578 53 957 3 8433 68 3489 52 1223 4 6251 58 5662 5 4708 59 7423 56 1163 49 9999
