# 3D point list with one line of data per point:
#   POINT3D_ID, X, Y, Z, R, G, B, ERROR, TRACK[] as (IMAGE_ID, POINT2D_IDX)
# Number of points: 378, mean track length: 4.3642394322739895
25653 2.5774398849808309 -2.8560231236317359 0.8102119051651262 169 180 174 0.11247526461070591 179 8081 165 7455
25655 1.2082349597467066 -1.8088648354048875 0.61873678971394774 0 3 0 0.70807119673832719 178 1146 165 7482
25658 2.5907910166938231 -2.8377950698276844 1.1130126311714139 163 166 159 0.10073335229689824 163 8708 165 7568 166 9422
25659 2.5818180823291352 -2.5024719869056322 1.0022686136817238 170 172 167 0.14207819460625865 163 8716 164 7402 165 7572
25660 2.5744188182048506 -1.9393997385403194 0.7338700877931289 211 214 206 1.2615944862952631 164 7421 165 7576 166 9489 178 1556 179 8233 212 1476 88 10473 213 1475
25663 2.5931887726753677 -1.0372756643381973 0.31572125332088213 211 221 213 0.2132762247172551 164 7525 165 7593
25664 2.5770986474451627 -1.810635029813803 0.75808178378392999 220 223 212 0.99169574462273113 164 7498 165 7636 166 9550 212 9494
25667 2.5402412207706706 -2.1873992102235613 0.2482475269090707 117 119 116 0.59845648384261041 164 9750 165 8333 166 10219
25668 2.5226617019645143 -1.4680135822654634 0.029128286860402405 193 194 186 1.2042586797997614 164 9793 165 8336 212 9230
25669 2.5254072217757191 -1.0317247152181563 -0.0030982378084442614 188 189 183 0.6371339907315382 164 9864 165 8361
25670 2.5083188934231768 -1.8966593021038349 0.435094189988596 220 232 230 0.89634846453010242 164 10921 165 8370 166 10910
25671 2.687920198005127 -1.6577516808730681 0.45407290820299023 201 215 214 0.46387790094203862 178 8168 165 8403
25672 2.687920198005127 -1.6577516808730681 0.45407290820299023 201 215 214 0.46387790094203862 178 8167 165 8404
25674 2.6915414579407231 -1.3725205879264872 0.46371063933759482 8 13 17 0.56303821779457863 178 11173 165 8457
25675 2.5000816395750394 -3.3528269054602156 1.4720167163259206 213 210 192 0.056307511567685029 7 5685 165 8465
25676 2.5595908869669115 -1.7965494148240473 0.77020232219264639 169 169 159 0.19606072921150317 164 9964 165 8482 166 10442
25677 1.9944202469863328 -1.862699067592503 0.85734666795906445 215 211 189 2.5116447372969639 164 7478 165 8513 178 1687
25678 2.5166157147616572 -1.2406056301384587 -0.15726556529064817 118 118 116 1.1088323898652248 163 12836 179 12438 165 8779
25679 2.5777028288055752 -4.4175847936258492 0.89035166386742337 49 66 0 1.2398788530484177 163 11410 165 8780
25680 2.6550988371296786 -1.5123920180590233 0.15516400424446433 89 91 77 0.6202557709976102 7 8584 165 8797
25681 2.6072933419916766 -2.5668179612210098 0.96457337269279952 203 208 202 0.098810140143249195 178 11140 165 8829
25682 2.6972778025514743 -1.7005069248325733 0.54563603615679668 0 3 6 1.1938046906037518 179 12516 165 8830 212 11304
25683 2.6972778025514743 -1.7005069248325733 0.54563603615679668 0 3 6 1.1938046906037518 179 12515 165 8831 212 11303
25684 1.4301495399130548 -1.0706206762666928 0.3815130090668481 4 13 15 0.24736415058063047 6 6024 165 8833
25685 2.6263934178810038 -3.700191894040108 1.5113369992309571 112 114 111 0.3946690852789419 163 13041 165 8835 166 10355
25686 2.5841101006357241 -2.3002012125870768 0.892638763886063 176 178 173 0.86696961177024134 163 13049 2 8721 329 12046 330 7789 331 11506 276 6706 332 11772 281 8188
25687 2.5315672343643509 -2.007404058583389 0.14067503982003457 183 185 176 0.20109350165128267 178 13147 165 9041
25689 2.6762130242089897 -1.5122592623804341 0.25266628313608797 1 13 13 1.3347509239155528 178 12471 165 9061 65 12493 164 10926
25691 2.5816482455023264 -2.1791456627189505 0.82780226283396796 138 143 139 1.0700832700032679 164 11455 165 9082 166 11310
25692 2.6980815813745358 -1.5274662414684748 0.50947858738208507 16 34 34 1.0705392750854179 163 13775 164 11458 165 9085
25693 2.5626273974586193 -2.7474373834384545 0.47543584259306726 148 148 146 0.91780057603016263 164 11909 165 9212 166 11511 163 14171
25694 2.5687970243151446 -2.7529072261537082 0.47589314382762488 148 148 146 0.77220579169177395 164 11908 165 9213 166 11512
25695 2.5532996053539736 -1.9640511550906798 0.46844672594012432 101 112 114 1.1723765914295874 164 11695 179 13120 165 9222 237 9889 275 8675 337 13690 328 11979 335 13812 336 13359 278 6989 279 6692 331 11414 330 8484 236 6434 329 12632 274 9243 276 7514 338 8595 332 12330 334 11350 340 11992 339 12526 281 9007 280 8514 264 7804
25696 2.690805190718057 -4.2502272045685485 1.4037596788141635 5 16 18 1.3043461687953144 163 14502 165 9226 166 11540
25697 2.5392038689337189 -2.1344655434397639 0.21619802815469324 143 144 138 1.8692136793754628 163 14476 165 9361 2 10185
25698 2.5359664288746848 -1.7405602847475383 0.044516521145631975 103 108 102 0.28255651813562188 163 14462 165 9366
25699 2.6128967895492918 -4.1209339235871205 1.3134936312265986 114 117 106 2.3509609371445257 178 13568 165 9371 181 9697
25700 2.6738830264921134 -1.513353204869492 0.26083482933554103 1 13 13 0.22573679286791765 163 14494 165 9376
25702 1.6071484753294096 -1.8469395977887764 0.81231039699175378 9 0 0 0.43251637071638904 64 13112 165 9391
25703 2.571975361660487 -4.4428760082803809 0.84997156376936012 212 223 227 0.084657322132314888 163 14669 166 11669
25704 2.5141520597033566 -1.2197540338948636 -0.17312682391153242 141 143 142 0.4339419827730765 163 14664 165 9440
25707 2.5192512044898816 -4.2446907051656595 0.95122166757412263 216 227 231 1.2859565438775968 163 14480 165 9443 166 11797
25708 2.5192512044898816 -4.2446907051656595 0.95122166757412263 216 227 231 1.2859565438775968 163 14481 165 9444 166 11796
25709 2.6918579409847854 -1.6686612001985994 0.47243664862709778 200 211 213 0.65522868647883137 178 13979 179 13874 165 9456
25710 3.1669290197276938 -1.7598109923232956 0.44707625023040148 0 0 0 2.4705017587441431 63 12404 179 13729
25712 2.6979058173149753 -1.569063965338704 0.59410540774204801 19 25 13 1.7246004779192674 178 13990 165 9471 59 11426
25713 2.6979058173149753 -1.569063965338704 0.59410540774204801 19 25 13 1.7246004779192674 178 13991 165 9472 59 11427
25714 2.3806970382223263 -0.81060322408927465 0.39042730645906915 207 200 174 2.0628544352804354 163 14548 165 9483
25715 2.5589535896544326 -4.3439754940049422 0.89815855657380261 47 62 3 2.0262350124811146 163 14796 165 9506 166 11795
25716 2.7230484988876311 -1.8295329434694518 0.35790505590607463 0 0 0 1.1934491983987006 163 14800 178 13972 179 13942
25717 2.5274077320295421 -1.4694140363150279 0.12442147441379264 179 180 172 0.9873472860977146 179 14007 165 9552
25718 2.6116568232244095 -2.9694003782512683 0.89227799763781934 0 29 30 0.53765327916201588 178 14207 166 12010
25719 2.7077563128670601 -1.3149779493640994 0.50528248115059959 0 0 0 0.98849057335068868 63 12691 163 15030
25720 2.6713216305132499 -4.0812529459917712 0.9625250099214373 158 159 151 1.3399571284116039 163 15062 165 9614 166 12067
25721 2.6065419900558453 -1.9005971461170312 0.59822044712023381 198 200 189 1.5054329873886843 163 15117 178 14337 165 9640
25722 2.5569077345859244 -1.9225707470256719 0.32833105747114272 236 230 219 1.5685431556874716 6 5695 7 5331 179 8026 165 5468 66 1700 65 12478 63 11061 64 8626
25724 2.6797446987031961 -1.6234457109935989 0.29536631391634782 0 2 6 0.80210833770927137 63 7973 64 8696 164 7246 165 7465 65 8612 179 995 163 8426 178 8090
25725 2.695800428663869 -1.3964255840246429 0.52899156374656764 8 25 25 1.5546629505599439 64 13090 178 13241 164 11007 7 8977 179 12568 165 9276 179 13511 164 11728 163 14241
25726 2.6908988838910872 -1.582735314927858 0.54335770252110049 9 18 21 1.3868963099485363 163 14523 164 11923 165 9384 65 13860 178 13825
25729 4.3693956506917484 -3.757065884717036 0.88707339206955449 25 65 75 0.20932677750535822 178 8079 165 5505
25730 2.5750118393175749 -1.370312556837614 0.02018074445985844 214 217 210 2.0155314656681993 164 12321 165 9636
25731 2.5404607465399991 -2.4574102175851369 0.3325474125500113 182 181 173 0.57353303426155466 165 271 166 1125 89 9577 213 9564
25732 2.5338009587417356 -2.1787181176763775 0.22667026413926147 117 118 113 0.92322132643644039 165 283 166 1147 89 9528 213 365
25735 2.5414636422839427 -2.4415538757113593 0.36152060588057899 128 130 125 0.82760524240872924 165 455 166 1375 89 6412 212 6527
25737 2.5674924220222395 -3.5305095146268215 0.79770718077685665 194 196 184 0.91314753548456684 165 394 166 1570 92 7031
25739 2.5636816259725688 -3.3889397752310213 0.76645955188711123 114 115 109 0.67285705356039882 165 610 166 1579 92 7038
25740 2.5572580688884483 -2.4022654323648429 0.52364436767252864 213 219 209 0.57044226720660207 165 852 166 1850 88 5829 90 6051
25741 2.553062379298233 -2.2935906019923613 0.49484116356191477 231 231 221 1.2129079553988242 164 862 166 1857 212 901 90 9117 213 6945 89 6976 92 7122 88 8648 334 1558
25742 2.5339064392980926 -2.2033879971416646 0.45409925708127918 175 176 168 0.18081181879107711 165 861 166 1865
25743 2.5685370819492785 -2.7822279829172767 0.70820433947043304 209 210 202 0.90750364546320128 165 838 166 1961 88 8682 89 10163 92 8359 90 9245 276 450 338 522
25744 2.5644061897710788 -2.4417487416186701 0.61665566940972472 223 224 216 0.55213656853078064 165 982 166 1989
25746 2.5547756810557507 -2.1056025032387589 0.47342046561122064 214 216 211 0.20884715964225517 165 1001 166 2021
25747 2.5557453818713909 0.12233887003077872 -0.48038558637000844 0 0 0 0.84614798430029392 13 1034 182 898 27 4678 26 404
25749 2.5811165597806127 -3.2003216742250578 0.94866874245340094 209 210 200 0.89355898973539816 165 5493 166 2089 90 9332
25751 2.587155232468147 -3.2005046560379156 1.0155544248320763 161 161 151 0.7872319699870054 165 1092 166 2093 92 8434 89 10304 178 1280 179 1053 90 9364 213 10948 181 7484 2 6649 278 6978 331 11408 274 9193 276 6609
25754 2.6036739388021122 -3.2391645771495678 1.2246126633190162 161 158 149 0.47848226882356371 165 1363 166 2371 212 9388 92 8456 88 9037 181 7518 2 6773 281 6229 278 7126
25755 2.5612646137774799 -1.8516194834790523 0.56488721571222367 189 190 184 0.59158517277785194 165 1272 166 2400 212 6966
25756 2.683707514591791 -5.2471094941725545 2.2283586492492966 130 131 121 0.11455522326132297 178 1471 166 2450
25757 2.6102425188367717 -3.2152728903708909 1.2888230502905871 197 199 188 0.27731317190379562 165 1481 166 2485 90 6978
25758 2.64074649476381 -3.0899930304881984 1.1776304756732221 7 31 35 0.90066469109418357 178 1396 166 2486
25759 2.5836176818350256 -2.3449454660045705 0.8653922189222536 14 23 28 0.20164935797339834 165 1392 166 2512
25760 2.6136796074045705 -2.2974452261007672 0.84191878599233549 19 39 41 0.86874482526684349 165 1395 166 2520 90 6670 88 6516 89 2423 212 9417 213 7212 237 8913 332 2171
25761 1.7754177888718734 -1.8862070103904824 0.89190752326657674 81 82 75 1.4112999303965896 165 5944 166 3099
25762 2.5580970314381202 -3.0132620727338915 0.58333367571702188 125 125 125 1.0236889760206349 165 5263 166 6706 212 9152 181 7359 89 9703
25763 2.5549797616210452 -2.8610971852870359 0.51976994066149274 116 116 114 1.0799657999658168 165 5270 166 6708 2 1656 164 388
25764 2.5675429338620743 -2.7146385402855127 0.45103868799110469 122 123 118 0.40035610859543108 164 208 166 6711
25765 2.5460616444281823 -2.5938702540814287 0.42566368526346049 139 140 135 0.36855383391516533 164 403 165 5278 166 6713 212 9156 89 9645
25766 2.5427199017446354 -2.5178352435065308 0.40890418693215247 182 179 170 0.56223356331215335 163 1221 179 550 166 6720
25767 2.5441718306293959 -2.5185839879228693 0.40949688457188071 182 179 170 0.19299557252633054 178 840 166 6721
25768 2.5425483390574612 -2.3470864157765283 0.32765626243158957 208 207 202 0.25041427667350763 164 422 166 6724 89 9659
25770 2.2445840637626282 -4.1895783408950464 1.2235233086959072 2 8 1 0.51740325733506676 178 7972 166 6887 163 8471
25771 2.5773240125733632 -3.3032929968781302 0.82499548056730754 187 188 180 0.35129565089847059 165 5445 166 6899 88 10150
25772 2.5658502492749058 -2.9077668424358811 0.70121740274648547 185 185 177 1.0523473101038401 165 5450 166 6903 89 10047 212 9244
25773 2.5647015124514003 -2.9062414768537153 0.70091671200117922 185 185 177 1.0908109925957941 179 784 166 6904 89 10046
25774 2.5615425908801064 -1.9215111640965361 0.35856894384012783 161 162 154 1.2812074842641985 163 1437 165 882 166 6943 178 1044 179 829
25775 7.33715683839125 -5.8898817970572326 1.24542824547455 3 5 4 1.9900903814864512 182 978 166 6973
25776 2.5850316844233361 -2.2597221187871552 0.55609612189458657 0 0 4 0.11993713048478746 165 5506 166 6985
25777 2.5901765070413831 -3.2531962490991519 1.0355562043754425 186 190 182 1.1958952742296849 178 1278 166 7013 92 8431 89 10300 90 9361 213 10945 181 7483 335 13804 337 13655 279 6622 276 7503 338 7756 334 10762 340 11416 339 11003 281 6166 280 6488 333 6180 58 4564 261 6460 64 8791 62 6280
25779 2.5976394068319739 -3.19683081158876 1.0058478915301194 210 211 203 0.39804542632088635 165 5588 166 7016
25783 2.6067285747043534 -2.3783672671384983 0.81151115260269535 31 68 72 0.67115449225102686 165 5699 166 7159
25784 2.6457073857421505 -5.1909302774153376 2.174462669952649 10 5 1 0.10800356599548556 163 1965 178 8195 166 7194
25787 2.6086809664395094 -2.7561516016089445 1.0376380218359313 16 35 37 0.74241086821203628 163 1999 178 1401 166 7235 179 8223 237 9402
25788 2.5669588592515762 -2.3719654834485988 0.90889825887304942 162 164 161 0.73388604720695882 179 1248 166 7249 163 2013
25789 2.5727523849861118 -2.1580473666363602 0.78497318564239182 26 52 50 0.22686514700716254 163 2020 166 7251
25790 2.5815917240939608 -2.1512212333305651 0.82462817090878771 140 142 137 0.73600657876155373 165 5773 166 7252 92 7389 90 9484
25791 2.5703631596495771 -1.893762543672755 0.6987027148958681 176 177 169 1.5428708001774198 165 5778 166 7269 89 10446 213 9881 92 7370
25792 2.5656372688362219 -1.8920708690390926 0.69858249378625781 176 177 169 0.44081236215140546 165 5777 166 7270 89 10447
25793 2.6311393232250992 -4.0178796770735543 1.7311601087795592 101 99 87 0.12888554904549143 163 2160 166 7313
25794 1.9770177353232345 -2.2362904168502524 0.9617801044034483 228 192 78 0.82313418820981044 165 1681 166 7333
25795 2.5189590763467069 -1.7301803293113562 0.75041297103864257 98 90 79 0.33953099608358495 164 1765 166 7479
25797 2.547881489315944 -2.3634177498892783 0.32379390625546622 134 134 132 0.40895594932671558 164 6958 178 7821 166 9154
25798 2.53686294673206 -2.1602629979822128 0.30320842953496779 181 182 176 0.64218295164723682 165 5292 166 9159 89 11602 213 9614
25799 2.5334485903811554 -2.0428891327811129 0.27613621295464547 206 209 198 0.8180026686009203 165 7409 166 9164 212 10406
25800 2.5495688014201243 -2.1783562506359302 0.38192660525334615 209 212 203 0.82068996434221964 179 8023 166 9218 178 7917
25801 1.9615253762475529 -4.0878974534227588 1.2848048070011617 35 41 27 0.83516216077388117 163 8468 178 7964 166 9287
25802 2.6065109999687435 -4.2626517252501746 1.4107383042640056 46 55 50 0.63264483453750131 163 8521 166 9300 90 10698
25803 2.6065109999687435 -4.2626517252501746 1.4107383042640056 46 55 50 0.63264483453750131 163 8522 166 9301 90 10699
25804 2.5909105488873094 -3.2890914827744981 1.0154273337421511 192 193 187 0.51803423584069652 165 5580 179 8116 166 9304
25805 2.5863122601326873 -2.8653140656709102 0.81195313404325253 170 181 174 0.66142273284933417 178 8070 166 9307 2 6655
25806 2.5960910293917157 -2.8749218711309172 0.81426747933371368 170 181 174 0.1453385850976591 178 8071 166 9308
25807 2.575819881395482 -2.4618929496291404 0.64095977562329931 241 242 237 1.3161268043888903 164 9848 165 7456 237 9372 212 10445 332 10892 339 9437
25808 2.5535945360231613 -2.0085132621120412 0.52529384592163209 186 187 179 0.64355727811715335 165 5605 166 9321 88 10230 89 11835
25809 2.570229547277477 -2.363237891798402 0.9246942308454571 167 170 161 0.59106059382920184 165 7573 179 1249 166 9425
25810 2.5851001149505195 -2.238024869327139 0.84959535860854163 159 164 160 0.9883459768910875 163 2017 92 7366 88 9062 165 1529 89 10436 212 7043 90 9481 213 7214
25811 2.8643371180596486 -3.8262386102790029 1.782710442413058 196 193 175 1.464970501976584 178 13228 166 9512
25812 1.2287167007943076 -4.6989716438836906 1.1646668533530131 42 53 16 1.1097922625482557 163 11384 166 10200
25813 3.7062457826216555 -2.9574495809220132 0.22074102015083485 0 0 0 1.5620828715110289 13 796 165 8334
25814 2.6082186659901199 -2.7138091522472978 0.45509310563596139 140 142 139 0.32526153693690002 165 8328 166 10237
25815 1.9466686972898382 -4.0629887612047781 1.3322188042552259 18 21 1 0.80848110907186066 163 11543 166 10296
25816 2.7166059334401842 -6.7064988882550525 2.4593938961220743 220 222 212 0.31264766303093555 163 11613 166 10317
25818 2.60575850300286 -3.7091232423640461 1.4725355700149971 103 102 97 0.0055806730639575888 163 11669 166 10353
25819 2.614186807535567 -3.0866845613515208 1.2052193579496735 74 74 73 1.0839293802083307 178 8150 166 10359 92 8475
25820 2.608526452301128 -3.0824264063096289 1.2046634416942721 74 74 73 2.0099616365363926 178 8149 212 11298 179 8221 92 8474 213 11823 166 10360
25821 2.5826357210406741 -2.6682435322805391 1.0604596401781758 137 138 135 0.57032380418974882 163 8714 166 10363 179 11188
25822 5.193421214639911 -10.397292478917382 4.9725822080486415 107 100 81 1.2017050515570351 25 6503 166 10400
25824 1.6949537252633091 -1.8319013018602577 0.9006976830654807 1 1 1 1.0422484538043131 165 7714 166 10482
25826 2.5864164847799622 -3.5038835243799631 0.79650131645291533 124 127 120 0.17134911771638253 163 13705 165 9051 166 11256
25827 1.9817024332956585 -4.0551283327075129 1.2877916208426483 22 25 8 0.92784904664392309 163 12975 166 11271 178 13165
25828 1.9817024332956585 -4.0551283327075129 1.2877916208426483 22 25 8 0.92784904664392309 163 12976 166 11272 178 13164
25829 2.6845500176113957 -5.2363164108949691 2.1833599721259351 50 46 35 0.51236712812647678 163 14231 166 11305
25830 2.6036640202998229 -3.0915746346422388 1.2293796171158464 185 188 181 1.4933828400730595 165 9080 166 11309 92 9996 88 11984
25832 2.0740238215469762 -4.2419709120141578 0.39768940188878305 212 228 228 0.4547724377606574 163 14109 166 11468
25833 2.5559028496989127 -2.2371777872402698 0.28359353550728683 190 191 183 0.51352774898535125 164 11681 166 11513
25834 2.6547598002174815 -3.935732825797801 1.4662874789840026 36 67 72 2.0196659646537896 14 1490 166 11553 13 1179 31 5115
25836 2.5795185589895655 -1.9794781184813379 0.70344135668903429 14 38 39 0.85980878608625455 179 12531 166 11562 88 11983 89 13294 212 11005
25837 2.5719753616604857 -4.4428760082803791 0.84997156376935967 215 227 231 0.084657322132455082 163 14670 166 11668
25838 2.5428838454928409 -2.5325698936768277 0.38847772810660319 138 138 136 0.091617790927743942 163 14158 166 11677
25839 1.3072092178013235 -4.6436777894133092 1.4383264132676845 51 66 9 0.92140744042809075 163 14482 166 11679
25840 1.9520542856426091 -4.0923523000478976 1.3060665570714798 12 26 6 0.81697370924624635 163 14487 166 11686
25841 0.79236135612052527 -1.1555328576398078 0.69060214644173723 58 58 60 0.096113520584222983 165 9307 166 11765
25846 2.6543986501752181 -3.3615095943914088 1.2612614961643782 2 26 36 0.023842139859714152 165 9518 166 11900
25848 1.3444533837979824 -4.8554155940798127 1.4163922109872051 218 229 233 0.39081160276833449 163 14888 166 11948
25851 12.474828469134277 -9.3616607556654721 1.8661555571466653 0 0 0 0.27660587966622385 165 9508 182 7994
25852 2.6526115278151852 -2.2543470842278532 0.5614125778676744 2 30 33 1.3152307086104753 165 9554 166 11958
25859 2.6384289156747638 -2.9812459842115904 0.97611878269435237 27 66 71 0.53635590820816137 165 9639 166 12096
25862 1.9541685506677278 -1.829898608206421 0.87716210923901994 1 40 81 0.22913083813792506 165 8892 166 11365
25864 2.7087964013459582 -2.9165453078870516 0.83300129019196967 16 51 53 0.18736826412508809 165 9515 166 11894
25865 1.2706650634767811 -4.5516159699444954 1.1878196243638968 215 229 230 2.439782576159629 163 14968 166 12002
25866 2.5762489884725874 -3.4595461404320034 1.1969050406311157 41 77 77 1.7044736254053789 165 9638 178 14317 213 12443 181 9915
25867 2.532480585865569 -2.0958000031031641 0.23376564673265968 252 241 213 0.81954914832527237 166 1161 212 328 89 6334 213 375
25869 2.5477344040622079 -2.1158538810848451 0.43484166547283254 209 192 162 1.0862237181838337 166 1878 212 922 89 6990 213 6952
25872 2.5596814653345712 -2.3589285809566896 0.57419563630245773 208 190 160 0.44715805711623746 166 1999 212 1057
25873 2.5553597142470701 -1.9710581934096441 0.47949086010835779 130 123 112 0.98581969292179072 164 1069 166 2134 212 1154 179 981 88 8765
25874 2.5514658234710197 -1.9510415003974435 0.48569903358456346 227 212 183 0.86440810022277093 165 1147 92 5018 212 1159 213 1227 89 7275
25875 2.6830574560241454 -1.4961264871907045 0.38290577633395073 253 253 245 0.20316725375356393 21 2027 212 1303
25876 2.6830574560241454 -1.4961264871907045 0.38290577633395073 253 253 245 0.20316725375356393 21 2028 212 1304
25878 2.5837395167081407 -2.1173848207847228 0.84342053072179857 185 171 145 1.4261719245278812 212 1464 92 5306 213 1565 237 2296 166 2733
25879 2.5762982821481093 -2.0152350319924426 0.76071473774653697 183 167 141 1.2285751230009609 166 2540 212 1473 89 2571
25882 2.5162998693241132 -2.0520652078763768 0.057037827290231144 247 235 209 0.94699226693274507 212 6387 213 6564 179 89
25883 2.5143247633620063 -2.0220043720547434 0.051747831672600303 202 187 160 0.52914890878607101 213 6613 212 6389 165 130
25885 2.569552228641041 -3.2908293585480215 0.72955743588915267 253 243 213 0.64503171065130938 165 619 212 6496 179 525 89 6765
25887 2.5493469595947316 -2.6205144560722746 0.4594227145035315 252 238 209 0.40803935014546 166 1364 212 6516 89 6531
25888 2.5375225991591019 -2.0881942813877421 0.30635223658411004 190 173 144 0.30779908031359826 166 1397 212 6604 89 9738
25889 2.5506019973738909 -2.3146851221728326 0.43279503894307647 200 180 153 0.61190279592311159 166 6832 212 6658 88 8550 89 9824
25890 2.7027717455066722 -2.8244725339989594 0.74613513978790691 230 213 185 0.2166766986903052 165 965 212 6854
25891 3.3560365510436014 -1.2683026435847899 0.045288380511140071 5 20 13 1.8725070498737886 165 7471 212 6914 65 2248
25892 2.6094000879062254 -3.2393270331097801 1.3024929136935468 132 127 121 0.8917274993112384 212 6975 92 5342 88 1692 89 2680 90 2457 165 1480 2 6889 337 12988 329 12085 338 6710 332 11056 281 1615
25893 2.6103156645724619 -3.0601713888122974 1.2595596688988953 142 139 130 0.61382514779774988 166 2664 212 7035 92 5354 213 9893 181 5997
25894 2.5754371895836683 -1.9375864234691862 0.75484838847564928 190 176 150 1.1181956608821071 165 1559 212 7048 213 9902
25895 2.5714488117323548 -1.9166419719784895 0.70794529677524187 232 215 185 1.5327952448232509 166 7262 212 7049 89 10442
25897 2.5341643598099446 -2.4480772747956592 0.29806698040371782 205 189 156 1.4357441269800544 166 6601 213 9519 212 9128 90 10393 89 9521
25898 2.5341213284582556 -2.0975606724590636 0.24455888859489852 200 183 153 1.8495486208371053 165 5294 212 9162 89 11573 213 9570
25899 2.5365479514417753 -2.0984982277842579 0.24368164220158448 200 183 153 1.247967901965169 165 5293 212 9163 89 11574
25900 2.5330417678746349 -2.0475181256272137 0.19961419287146098 232 216 190 0.69183868183343866 164 6979 212 9164 213 9572
25901 2.4162314596413115 -2.4615978349542829 0.62721219110651971 245 236 207 0.18218156292118165 166 1974 212 9283
25903 3.3667047539021251 -3.9729569437143395 1.1679767129256726 22 53 48 0.51378623917040134 178 1171 212 9312
25904 1.9671705289050894 -0.51271168015350799 -0.081911894509658481 0 0 0 0.67210201089556187 179 8060 180 7574
25905 2.4830440109065606 -0.30101990704858872 -0.26867869908709979 0 0 0 1.2222865775512095 164 1165 179 11109
25907 2.6055939989797072 -3.1068038944878995 1.2465551654493265 150 147 132 0.8441881456645256 165 1493 212 9411 92 7411 213 9891 181 5953 281 1635
25910 2.6127823289733056 -3.059984103720053 1.2846058536045468 175 176 162 0.59795817498543435 166 2665 212 9436 92 8517 213 9917
25911 2.5751857251959525 -1.9838285150680663 0.75151118773205983 181 166 145 0.59707145219559565 166 7373 212 9446 89 10441
25912 2.573639436977587 -1.9463429737179092 0.73849216767014036 188 173 150 1.3194518495178469 165 5779 212 9447 88 10472 179 1257 178 1555 213 10999 237 8084 261 11
25913 2.6024836868227679 -3.4744315061463884 1.0725695624840417 217 210 186 0.12184887738234973 179 8073 212 10425
25915 2.5803133161887901 -2.8697510477952974 0.82163972577816113 1 4 0 0.024366067078629174 179 8083 212 10437
25916 4.1004191122176232 -3.2047973331210322 0.68780487304374238 0 2 0 1.4899523185547694 166 10297 212 10443
25917 2.1550881471640975 -2.1673681466451122 0.59787619583451912 0 0 0 0.26121359339142847 163 1536 212 10447
25918 2.5487509053608504 -1.9412955642677674 0.41518244973732088 232 215 186 0.55978763377697816 165 7460 212 10454 213 10910 88 11199 92 9077
25921 2.6189022374954085 -3.2061189813609037 1.3611252088170649 188 189 175 0.95263233264139757 166 2659 212 10499 92 8515 213 11025 90 9556 181 8431 89 10699
25925 2.5125294656426425 -1.4789736309512915 0.0023578056546462623 222 206 173 0.63970155163969844 178 10981 179 11058 212 10962
25926 2.6768564287094909 -1.8534633954140258 0.31088944862508361 5 10 4 0.63078367485214615 179 12462 7 8082 163 12962 178 12444 178 11047 213 11505
25927 3.3222468924342841 -3.4382794425511758 0.93138905251444903 1 8 4 0.061429154631470077 179 11122 212 10971
25928 2.1231498753232496 -2.1702055484239691 0.59995869073128782 250 242 219 0.71774887230970275 179 11120 212 10974
25933 2.5898276572903955 -2.3182654976972308 0.88021982595704906 198 184 160 1.2476099225128869 166 10954 212 11300 213 11828
25937 2.5263135977396791 -1.0104893671191504 0.029456800167414695 0 0 0 1.5758053781153278 164 12060 179 13867
25938 2.5263135977396791 -1.0104893671191504 0.029456800167414695 0 0 0 1.5758053781153278 164 12059 179 13866
25939 2.5419687696907456 -1.0065675619858188 0.052610855902732512 0 0 0 1.0566276091437037 164 12062 179 13868 6 9776 21 9961
25940 2.5189151194923229 -0.99668114452512691 0.052999315903986745 0 0 0 0.1369238900875408 164 12061 179 13869
25941 2.6136475964523349 -3.213958105343047 1.3071003841617799 176 176 164 1.56980025411692 166 11559 212 11684 2 10844 236 10024
25943 2.5266461840628027 -2.020230520939811 0.17075980951181677 165 152 133 1.5087521069941536 165 9363 179 13714 212 11765 164 11890 213 12226 236 8796
25944 2.5283330149166612 -2.0202831501518612 0.17050974408582695 165 152 133 1.7280263208951223 178 13785 212 11766 213 12225 2 10541
25946 2.6942257710748487 -1.7099731298525938 0.49274955305264567 10 16 14 0.73299422772019163 178 13811 179 13727 212 11841
25947 2.6910424715130592 -1.6680553462435268 0.47301837862804941 237 233 214 0.10707787532813703 165 9455 212 11843
25949 2.5066037021248477 -1.5731218830607354 0.16885693254382569 230 215 186 1.8805018946983985 178 14141 179 14006 212 11921
25952 6.7774829627839575 -4.9376465886010674 1.012784165339184 7 49 47 1.255928158657249 182 8141 212 11959
25953 2.1141399214657279 -2.1561424020472622 0.78274456290089989 21 73 74 1.6366526525390337 179 14090 212 11965
25955 2.3564803396620784 -2.0035252234838645 0.45783890640747066 0 0 0 0.61924290779514335 165 5508 166 6989
25956 2.1731063005168858 -2.0433732382497554 0.92369283502382382 221 199 176 0.40184247081662333 164 7477 212 1753
25960 2.3672154364360836 -2.4857132449360164 0.94372844464564942 241 233 212 1.0797420778038906 163 8710 212 10999
25963 2.5116141751808683 -1.8905056883796973 -0.045960499376188138 236 240 237 0.93519865117790868 64 8072 59 486
25964 2.5460115098016982 -2.7839714637552109 0.47666514590457121 255 250 237 0.36977800312288722 64 1207 59 599 61 4197
25965 2.5376836562685652 -2.3474332976964432 0.32987623589089959 245 239 226 0.78374639675315649 64 1238 60 13694 59 831
25966 2.5251733417401101 -1.803263759688077 0.067039463266164404 142 138 129 0.2233057203891709 64 8269 59 869
25967 2.5790421305356355 -3.1356934021464005 0.87536392803226748 255 249 235 0.70358741474974373 64 2099 59 1260 61 953 76 6924 62 795
25968 2.5626257478543173 -2.8287678240915066 0.70956327147774978 255 253 237 0.69647619945938533 65 2024 59 1310 60 10631 61 866
25969 6.7773353260206113 -2.4903595764637125 -0.087882116349259395 13 18 20 0.96361558914790346 66 1684 59 1480
25970 2.1344085149183578 -2.8215399907333438 0.87534481907056605 163 165 162 1.1099830873248639 178 1160 59 1495
25972 22.018070540433261 5.8259745351733612 -6.4040445530336552 157 160 156 0.91541681461720192 63 2009 59 1510
25973 2.5518305259688345 -2.1815378414252327 0.48652272801815816 254 249 235 0.56033971193424892 63 7896 59 1534 60 13921
25979 2.1489839496795033 -2.7330810450969949 1.0616478174447008 1 7 5 0.65204021521548716 212 6984 59 1977
25980 2.6671508134870958 -1.1955926201192359 0.36954101566573844 0 3 4 0.64304655325459803 165 7583 59 2016 57 1420
25981 2.5962055604225971 -2.6270000152076851 1.0532024943656737 171 163 152 0.60366108647579464 64 2732 59 2158 76 7411
25983 2.5844536580747359 -3.2717813367208866 0.97089973887426073 248 243 228 1.0140178173765824 64 2090 59 6924 55 1432
25985 2.517907541122566 -0.69590335742166221 -0.13332357352005697 229 225 213 0.39647838798111523 65 12484 59 7015
25986 3.3326234766527674 0.12318044181496429 -0.59798774969451873 9 15 14 0.026466565882650658 65 11282 59 7049
25988 2.6920642806677884 -1.6991139365252934 0.45671991102071452 14 29 26 0.42420208208137555 6 7705 59 7072
25989 2.5847122916719578 -1.5757845195641722 0.44594009678801577 13 25 23 0.86113901298037998 68 1529 334 6640
25992 11.834500469339442 -3.7263621992814313 -1.6465075871625841 233 226 208 0.13539944797108566 68 7821 59 9085
25993 2.3833566105894763 -0.65060331248497327 -0.093796261099118677 6 22 25 1.0667233070869695 6 9395 59 9219
25995 2.7132499085738369 -1.5384467544042939 0.51461222339270729 0 0 0 0.30134527560164792 18 10331 16 9104 17 9959
25997 2.4903369019492763 -0.45806575769979035 -0.49781851544587452 143 140 135 0.17999271205124706 65 13513 59 10257
25998 2.6063974660004074 -3.165276140077895 1.2226257188162031 149 145 134 0.58226835171348612 64 9054 59 10319 60 15394 61 4654 62 6342
26001 2.4356371812729223 -2.2417052618060471 0.83979093510891667 254 254 242 0.3171451417211299 165 9078 59 11014
26003 2.6099191976779981 -3.0334597040016047 1.2596872616783901 194 188 174 1.5383765782597258 64 13109 59 11422 61 7396 62 7913
26004 2.6876268901591214 -1.5875602774545006 0.44218274827688658 226 223 216 1.2614153440528115 63 12531 59 11737 57 12652 56 13738
26005 2.6877237553104258 -1.5879858468244101 0.44111688820041028 226 223 216 1.5764036574632396 63 12530 59 11738 57 12653 55 11897 56 13739
26008 2.5303405456394508 -0.87005518975989216 -0.0035935969124276891 65 74 57 0.31493327140623167 64 14259 178 14258
26009 1.6770735220225728 -1.5913188784909456 0.44351118019914798 0 22 33 1.4105895605034044 6 9636 59 11999
26011 2.5530234304566761 -2.1285036752194273 0.47042297697838398 219 213 198 1.5930784655289194 16 10145 21 9959 7 9298 20 10847 72 6091 68 12060 67 14620 66 13562 65 13961 63 12509 64 14037 59 11986 337 14746 279 11452 55 12949 334 12090 340 12829 280 10620 76 11568 56 14531 277 11308
26013 2.6893452679336272 -1.6883202526186993 0.42674711297688933 236 240 240 0.68364016385350745 13 5294 21 9561 14 5915 6 9413 20 10432 12 1388 15 10383 7 9153 8 1325 72 1639 73 6874 71 1610 70 5666 69 5814 65 13607 63 12247 64 13476 59 10998 68 10895 67 12172 66 12504
26020 2.6255083203701814 -3.167036244985411 0.95631822065826277 0 0 0 0.93877597751402675 13 7916 70 8406 3 11661 5 12211 7 9300 8 8821 16 10143 17 11038 18 11470 20 10666 21 9807 15 10340 9 7216 14 7991 72 8366 6 9771 178 14058 20 10853 68 13110 69 8531 71 8315 73 9302 74 9262 75 9270 163 14683
26026 3.1068760366128889 -1.3693747531421301 -0.01133614806525763 0 0 0 1.4357568581746183 18 1762 31 490
26027 3.0404000458562024 -1.1477662494394165 -0.055580214800673516 0 0 0 1.6027763531738786 18 1776 31 505
26030 3.3672384032420828 -4.5056588464702232 1.3555866747151164 0 0 0 2.279039412519503 18 9139 31 799 32 683
26032 0.12273875097770137 -2.2439705701014718 0.89753256827554706 0 0 0 1.5460907169450271 25 8263 72 8410 24 8265 23 10149
26033 0.12273875097770137 -2.2439705701014718 0.89753256827554706 0 0 0 1.5460907169450271 25 8264 72 8411 24 8266 23 10150
26042 2.6745286290414221 -1.8776756331791444 0.33389778550628452 0 0 0 0.85223325451053256 179 14082 182 7988 178 14206
26043 2.5683644586698264 0.8566438301514373 -1.3040906558635301 252 252 250 0.29007718069658583 80 1382 83 2063
26045 2.4911115690895467 -0.31364169538527881 -0.48120114623186822 241 237 228 0.87904582290718036 80 6871 83 2494 84 5045
26047 1.9775183846880109 1.6556226748608744 -1.0102737753399784 126 118 105 1.2066616566145589 80 1934 83 2502 82 5667 81 934 84 7605
26048 1.8686586236613771 1.7189752967549781 -0.91077303817169708 105 98 89 0.67503668280768647 80 2059 83 2654 82 1006 84 544 10 817
26049 2.0212040908905191 1.7364737152824519 -0.83625274274267292 230 228 214 1.870396091702957 80 2172 83 2655 82 5779
26050 0.98615106572284006 1.1156496481820175 -0.50901984851187398 199 201 187 0.99722498987688324 80 7084 83 2695 82 8213 283 735 84 7618 81 4278
26051 0.96332945485643262 1.1296863589713448 -0.47460111024934093 63 70 62 0.8600999401974605 80 2152 83 2698 82 5849 84 7657 81 1198
26052 2.4564281272552684 1.8652607277925644 -0.85039788296170693 181 169 153 1.2455095178011766 80 2183 83 2725 82 1125
26054 1.0434551229770697 1.1610706148089773 -0.3964246070983895 163 175 165 1.5820185312207689 80 2358 83 2786 82 5951 84 7698 81 1269
26055 1.6595519742197575 1.2195701929369067 -0.41002510734301956 210 193 149 0.59149828839769814 10 1281 83 2793
26056 0.87397363754708024 2.11054549630426 -0.8363391094145477 242 244 235 0.95275234015441035 80 7259 83 2805 82 5864
26057 0.64570943672929537 1.6732922558578371 -0.49212339424182161 137 123 104 0.96634267769410609 80 2658 83 2957 82 6046 81 1361
26058 0.66911372279312342 1.4384487194548898 -0.38016123341315577 238 204 94 1.6712092724137253 80 2656 83 3167 82 6041
26060 -1.5862649682208729 2.3438726905868275 -1.3843972360565546 28 30 26 0.049522592765939233 80 680 83 5407
26061 2.4984885438705686 -0.23356371331153769 -0.31032515884789003 233 228 222 0.51621985309506491 72 5995 80 6929 83 6412
26062 1.7105551162863795 0.87408025663047517 -0.67049242221664729 231 220 202 0.47079172723072832 80 9854 83 6417 81 4079
26063 1.7474614650289049 1.6734014443609062 -0.96117932137568118 125 105 94 0.49219187903949974 80 7006 83 6419 82 8131 84 7603 81 1084
26066 2.0096529183086549 1.7012583765946068 -0.88978466315311078 125 122 106 1.6642147603686837 80 9866 83 6467 84 9034 81 4178
26067 1.1824123897089767 2.441574495845857 -1.0917606561678006 55 82 74 1.1088213007233345 8 1445 83 6469
26068 1.3246003995222022 2.3878864918494003 -1.0779996199672535 55 82 74 0.07863597355296495 10 7281 83 6470
26069 0.79840102578392325 1.07352859096509 -0.50474548269146502 7 19 11 0.54304586836344593 80 7081 83 6500 84 7614
26070 2.4817707019787805 1.763564498922696 -0.74869452987661245 103 107 51 0.27024183588916928 80 7284 83 6517 82 5887
26071 1.7074422181448554 1.0112619572089421 -0.36231581534175195 41 42 30 1.079942693578438 80 7246 83 6559 81 6056
26072 1.7982543508274937 1.1471711612691344 -0.38070691139040885 15 5 0 2.0072655992245862 80 10005 83 6563 81 4346
26073 0.90864104557909853 1.8892885894691631 -0.69609338562308398 227 215 189 2.0713821553367433 80 7251 83 6571 82 8292
26075 1.8196733167997499 1.094812879643406 -0.31792484862418702 128 121 103 0.37339217461411223 83 6666 81 4391
26076 0.64032727323576344 1.6568055892319551 -0.47653357364992621 117 105 93 0.4604775645634907 80 7402 83 6795 81 4389
26078 2.4426733878494451 1.0675907516022178 -1.1750304639019364 240 235 222 1.1767981159388969 80 9713 83 8565 82 9479 81 3934
26079 2.514252524406102 -1.0134280945259859 -0.26284192064301481 215 206 201 0.30620731522424766 14 9452 83 8648 84 8945
26080 2.4864000733225082 -0.43639635613018907 -0.50689644017039115 201 193 190 0.26571124224103831 80 9767 83 8651 81 5826
26081 1.8667250872356564 1.6972147829808697 -0.96634695668202586 123 120 113 0.84258949971168184 80 9857 83 8690 82 9628 84 9003
26082 1.874593536675268 1.7053196811048366 -0.94050100375636791 120 116 107 0.70038908049555582 80 9861 83 8692 84 9004 81 4172
26083 -1.5363519229204179 3.4767227442381379 -1.3434630384998634 49 75 69 1.4203228763863673 72 9514 83 8736
26084 0.98568410860941102 1.1295147629214857 -0.47059569839983373 157 159 154 1.0822942345698128 80 9902 83 8760 82 9724 283 7753 84 9869 81 6997
26085 2.4625926748477101 1.8433206619739848 -0.80351937201019474 195 188 161 1.3353861038161345 80 10019 83 8772 82 8236 84 7713 81 1318
26086 2.4538344409861379 1.9282437605873419 -0.82508948455726705 118 126 68 0.9545231647589838 80 7288 83 8774 81 1324
26087 0.80129974711080454 1.1400889870254363 -0.42908604636943642 53 108 77 1.4621224950539011 80 7233 83 8805 82 10531
26088 0.83586597587850753 1.1532574400179847 -0.45710805229096524 8 39 27 1.0811853417994692 80 11530 83 8807 82 11014
26089 2.0300001382837918 2.1173431797399669 -0.8222113006719326 147 121 84 1.3322031767779121 83 8819 82 8310 288 11579 287 9440 284 8719 293 10214 285 9632 290 8411 289 7789 81 4362 80 10018
26090 2.0104864782847818 2.1601957320915686 -0.82767171702409015 188 170 137 1.4456223899466734 80 10132 83 8820 82 8311 84 7759 81 1325
26091 0.6901727900783281 1.1589069054581473 -0.37048115324856412 21 61 36 1.0056654295949348 82 10557 283 7916 80 11529 83 8869 287 9240
26092 0.70019408022856777 1.388946240579749 -0.4468574827376951 81 86 52 1.3865245815667526 83 8874 82 9757
26093 1.7855777832922524 1.1695098903062202 -0.350499437524181 130 126 115 2.1945831150261603 80 11605 83 8879 81 6089
26095 -1.5695487181923586 2.4555481849957013 -1.1421197049466953 8 27 20 1.7938293804604286 80 9732 83 9876
26096 1.7321292349750679 1.6763225739500702 -0.97854484200458103 235 221 194 0.67597842534327002 80 11430 83 10001 82 9627 84 9855 81 5931
26097 0.89900994862379868 2.0226398018498748 -0.89092143167974436 65 68 80 0.57884231281884191 80 11473 83 10022 82 9691 81 7004
26098 0.86699294068308264 1.1198564478773123 -0.49888095809852862 48 85 67 1.3789503672293444 82 10998 80 12347 287 11842 84 10734 81 7582 83 10050
26099 0.93669604154747532 1.1292424631232201 -0.47175869521733049 188 191 187 1.20466969267755 83 10051 82 11013 80 12349 287 11843 84 10745 81 7583
26100 0.90937130089887297 2.0376240529810423 -0.87631473941984028 62 70 81 0.66508908215018647 80 11474 83 10060 82 9692 81 4285
26101 0.68007148621260471 1.1834033175509051 -0.34269031995326255 46 67 48 1.0127069603623884 80 11596 83 10147 82 11032
26102 0.66872355912116521 1.1539215465455617 -0.28879098243037488 17 10 1 1.724790180279691 80 11595 83 10148 82 11044
26103 0.8692200019717371 2.2222299982311431 -0.7370108475976046 76 65 43 1.5631790853892769 83 10158 82 9768 84 9144 80 11610
26104 -1.4541701026862894 3.505673178469348 -1.1151757194759382 171 148 114 1.4097273705555182 80 3817 83 10535 82 10173
26106 1.733172796717102 1.6623127900495154 -1.0021552052887834 237 225 199 0.37082782836538364 80 12305 83 10814 82 10473 81 6929
26107 1.7185508908981648 1.7022679074130207 -0.91464590959759451 243 232 204 0.7501054331609055 80 12324 83 10835 82 10492 84 9854 81 6965
26108 1.8415218272442475 1.6635931978496816 -0.9890247914908481 133 125 118 1.1279181861739562 80 12882 83 10836 82 10969 84 10726
26109 1.8539743462071037 1.6809418458011891 -0.96152669949270253 224 219 209 0.37327681705096316 80 12325 83 10837 82 10970 81 6966
26110 0.91526388150269877 2.0757271665980577 -0.84822515846864111 58 61 76 0.74407414787137105 83 10873 84 10423
26111 0.80604407709527992 2.1189435332168398 -0.84076250081566029 254 252 230 0.83887792631373648 80 12923 83 10874 82 10540 81 7035
26112 0.66341727713557519 1.1530246959950317 -0.37190748839992793 241 214 112 1.1348558237334416 83 10889 80 12384 82 11294
26113 0.66341727713557352 1.1530246959950332 -0.3719074883999286 241 214 112 1.1348558237332964 80 12385 83 10890 82 11295
26114 0.66672971443904616 1.4503925941013858 -0.41311483351013112 21 24 13 0.52011233736095186 80 12438 82 11048 81 7622
26115 0.65318749972347412 1.9349122291126288 -0.60107548536933542 116 100 85 1.6350742737768318 80 12439 83 10931 81 7054
26116 -1.4451161472710528 3.2055907614534243 -1.0175802205773326 209 184 144 0.67355015176790478 80 7780 83 11078
26117 4.7301992409028708 0.61376680457687061 -1.8178357832139664 251 255 250 1.8120186485375942 80 13145 83 11253 81 6839
26118 4.5099012069020201 -0.28976747954529913 -1.3755526674217311 252 254 246 1.3520903166062563 80 12813 83 11265 81 7493 82 11215
26119 2.4934945782824558 1.3100230179910302 -1.2980639203497351 241 237 225 0.86481518243610855 80 12843 83 11286
26120 2.4187722250522983 1.6937026204159937 -1.4495273335764807 239 233 221 0.4002775358424786 80 12825 83 11287
26121 2.4833300884772935 -0.31029922754966421 -0.53826001410224078 85 85 73 1.7312134987743126 80 12273 83 11323 82 11247 84 10375 81 7516 81 7906
26122 1.863147772134637 1.6928770949260643 -0.92768871500373451 223 219 208 1.627261771650492 80 12883 83 11337 82 11271 81 7564
26124 0.64945549595316132 1.9110398317492818 -0.59355855597248675 253 216 14 1.5841820809254488 80 12949 83 11404 81 7623 82 11315
26125 0.64945549595316132 1.9110398317492818 -0.59355855597248675 253 216 14 1.5841820809254488 80 12950 83 11405 81 7624 82 11316
26126 1.7957911284545396 1.678920917356439 -0.95660883695996823 141 134 124 1.2100225187674998 80 13381 83 11663 82 11261 84 11092 81 8162
26127 1.7073239910393576 1.0018397128212946 -0.34312057969852072 11 10 8 1.2629061341508694 80 13212 83 11678 81 7970
26129 -1.4061712308064658 2.2611082775146225 -1.586980308258525 214 218 219 1.3501490964564165 80 13335 83 11780
26133 2.0194971442900038 2.093607759591583 -0.80981330005603624 164 136 99 2.0176431933110193 80 13400 83 11853 82 11472 81 8189
26134 -1.450735592545136 3.4730657922239723 -1.1105081404229513 222 197 156 1.6075494327567466 80 12587 83 11905 82 11531
26135 -1.456321595117881 3.5123080274174914 -1.1238797829802556 229 208 165 0.97338089233437375 80 11832 83 11910 82 11392
26136 2.5416013950135663 -0.82606462322399921 -0.006324900757599233 51 98 104 0.19799349532874067 80 13509 82 11735
26137 -1.4531580568824263 3.4596211043448091 -1.1018973013176261 255 245 221 1.0154732590511826 80 12586 83 12007 82 11642
26139 -1.7482501126990055 2.3137064986264702 -1.4350807691417371 55 69 80 0.65047402128427068 69 9426 83 12131
26140 -1.6147686117694786 2.3172386901618771 -1.4115183600485584 171 181 184 1.0281600329733813 80 13729 83 12188
26142 2.5045860083998557 -0.19913648174939982 -0.28346915568288578 139 142 138 1.100894434644927 12 7551 14 8951 80 7002 13 7921 83 6460 68 12713 67 14202 66 13133 82 9654 81 4077
26143 2.4898638328424294 -0.29925660194133202 -0.50274790993393781 152 157 153 0.78873688139195908 80 1791 83 2495 82 5556 84 274
26144 2.5718411122668781 0.82890400533911546 -1.3007648048510114 145 168 198 1.4761728822588027 82 43 84 8 10 9
26145 2.4413971941591166 2.0618880882965529 -1.519339987246642 201 207 208 0.71886623061653832 9 6840 82 208 84 136 223 4935
26146 2.4331029298562119 2.116684487259175 -1.6010295747652863 204 209 212 0.50593138717490327 8 610 82 213 84 140
26147 2.4282849106605688 2.129754442444622 -1.5950718391901741 94 102 105 0.91331473978832822 8 612 80 6668 82 214 287 287 84 5005 223 7161
26148 2.4284959599854314 2.1296556095649359 -1.5951949691988632 94 102 105 0.94616911204868115 8 611 80 6667 82 215 84 5006 223 7162
26149 2.4414396903688216 2.162268699529728 -1.6040035835159181 254 254 246 0.94156301739677839 80 1405 82 216 84 5007 81 702 284 20
26150 2.4350734852155234 2.3057158935220028 -1.6658455906241458 228 221 213 0.59552273828842994 80 6672 82 223 84 7524
26151 1.832600928227881 1.6586704912538428 -0.99759022130802943 57 50 41 0.69402675481070419 80 1931 82 897 84 378
26154 1.9062878226106437 1.7258514999491212 -0.8726787359372099 169 166 147 1.1763908917046935 80 2168 82 1008 84 548
26157 1.8734757421536476 1.7668596336964508 -0.76282500101616735 204 195 179 0.9842907258253164 80 2396 82 1114 84 5271
26158 2.4445684727097547 1.8382988152689246 -0.81734140399293387 54 45 40 1.0902450946812015 80 2413 82 1124 287 1293
26159 0.86318127445034232 2.1266144671849441 -0.83453604004224113 40 42 55 0.42720227179995418 80 2381 82 1308 81 1291
26160 1.3819397799767295 1.8527589184259734 -0.74834107613214029 240 228 200 1.252906513973908 80 2387 82 1309 84 7706
26161 2.0881501212864118 2.1122721076218975 -0.82512444075750879 163 135 101 0.8642317226442886 83 2822 82 1338 84 850
26162 2.0017664620808877 2.5745700876739592 -1.0213216247284012 188 168 137 0.13105430877297944 82 1351 84 5399
26163 1.7031872878222947 0.96201911863201395 -0.28285791040859543 226 210 175 0.96283639527103759 83 2958 82 1459 84 5310
26164 0.86989727579679832 2.2270242221447534 -0.72716178656161579 171 164 151 1.2608436673919317 83 2988 82 1637 84 5434
26165 2.5861515406975437 2.0103076262953903 -1.7864411096610664 251 250 244 0.9856212836657513 80 9572 82 5211 81 586
26166 2.4460092084919216 2.300917051898093 -1.7053965278361722 207 204 195 0.8697449408400072 80 1409 82 5224 287 6138
26167 2.4358284859619115 2.0906321279476741 -1.5572212002289152 202 208 206 1.0009762460196148 8 6200 80 6777 82 5294 285 26 81 698 223 7164
26168 2.4241715675579338 2.1378280472988633 -1.6044455495235688 202 208 206 1.4700136963842454 8 6137 82 5296 287 8913 283 5180 288 9401 84 7520 223 7163
26169 2.4467899015292507 2.3305840024958808 -1.5998371051612856 235 231 222 0.93493401642337426 80 9718 82 5299 84 7546 81 703
26171 2.4887463140851134 -0.32933340993629351 -0.48985835537695011 141 142 136 1.1475862206530596 80 1790 82 5557 84 272 81 793
26172 2.4887463140851134 -0.32933340993629351 -0.48985835537695011 141 142 136 1.1475862206530596 80 1789 82 5558 84 273 81 794
26173 1.7207128118774642 1.0182941309609859 -0.75089409815191421 99 84 80 0.19698541636959083 83 2570 82 5657
26174 1.8713429724880892 1.6742084043837722 -0.99473010042461807 211 209 196 1.0307183806436968 83 6420 82 5665 84 7604 80 1932
26175 2.4919545581112659 -1.068779056179662 0.034682029590473985 0 0 2 0.43391270333743936 83 2627 82 5716
26176 1.0762698907639676 1.1298166093796944 -0.50889179769463289 35 51 38 0.64603768298434261 80 7088 83 2703 82 5772
26177 1.0762698907639676 1.1298166093796944 -0.50889179769463289 35 51 38 0.64603768298434261 80 7087 83 2702 82 5773
26179 0.92819926834886224 1.1472043114833235 -0.49851626990903314 65 38 28 0.60432205834982489 80 2150 82 5847 81 1195
26180 1.4198245971409573 1.8318395020856306 -0.76133501246146251 254 239 139 0.60799828526298672 80 7263 84 9074 81 1292
26181 1.4216508029094199 1.8394752171209827 -0.74159505907664014 245 214 63 0.38793377829065778 80 7264 84 7707 81 1293
26182 2.0135263019076652 2.0654438986757242 -0.79888906914857472 135 106 66 1.7572992923862933 83 6598 82 5888 81 1319
26183 2.0265693533427154 1.9943128722999084 -0.76967010926329005 114 81 36 1.4298458381057078 80 7282 82 5890 84 7756 81 4361
26184 1.7098294311732771 2.4464554654030204 -0.92444034681704756 133 130 121 1.524326029227403 80 7448 82 5895 84 7799 288 11582
26185 2.4223906041456917 2.1072801545296387 -1.604653306879378 90 101 103 1.011166360884125 8 8636 80 11300 82 7887 287 8912 283 5178 288 9400 284 5507 285 9071 84 8934 81 3939 223 8869
26186 2.4309394451914579 2.0952382721906639 -1.5755974615831543 88 97 102 0.63906746425710792 8 6134 80 9628 82 7889 84 7518 223 8205
26187 2.4154035697871157 2.0357978213586843 -1.4879744222630904 90 98 100 0.26696372449651384 8 8683 82 7890
