# 3D point list with one line of data per point:
#   POINT3D_ID, X, Y, Z, R, G, B, ERROR, TRACK[] as (IMAGE_ID, POINT2D_IDX)
# Number of points: 375, mean track length: 4.3858645145512352
11902 2.4888957106074048 -0.19356721060531812 -0.2049241384534993 0 8 17 0.25991155870784038 26 8601 25 8536 27 8552
11904 0.24396679427900136 -1.2914374711646108 0.83372521449422687 146 143 134 0.72784064136166082 32 11161 25 8554 34 11867 24 8941 22 12546
11905 0.27963192755113014 -1.35006858670605 0.85494106419305116 151 149 137 0.63944387878895481 32 10975 25 8555 34 11675 24 8707 23 10662 22 12547
11906 0.77058999858715138 0.34248999802398195 0.065747068639717021 194 187 169 1.3144981617021034 32 11416 25 8585 31 9463 24 8759 23 10723 22 12583
11907 1.0195499484112196 0.28852700461637754 0.064446604588118697 157 154 147 1.1538414604680212 27 8918 29 9439 25 8587 26 8955 23 10713 22 12587
11908 1.2582297029994349 0.33590290834620962 -0.0011634762861163555 146 139 131 1.5517607414572903 27 9048 28 9002 25 8591
11909 2.2480062507402878 0.052030718385823856 0.055869915282435262 86 87 82 0.49711132236887151 26 8938 27 8902 25 8598
11910 0.93886518109635519 0.35073411867244553 0.044135162821662327 132 129 120 1.5856461065798935 30 11072 25 8601 22 12585 29 9437
11911 0.89613147322365294 0.64251511484541679 -0.080311279864769811 154 149 143 0.86566151534224967 26 9124 27 9066 25 8612 24 8787 23 10737 22 12615
11912 1.3512899993496379 0.74879741946926581 -0.16844176761084145 157 153 142 0.25204289565618176 26 8985 25 8625 24 8996
11913 1.5632703530164778 0.71979254472206111 -0.1665701464676235 106 105 101 0.49381709575826488 26 9115 25 8627 24 8999
11914 1.0463962116994172 0.90759249359463889 -0.20768632085929309 119 116 107 1.1607370696558683 26 9235 25 8641 23 11006 22 12900
11915 0.98387780853979245 0.93119145032623474 -0.20991507044920887 165 159 145 0.67363453819368202 28 9120 25 8644 22 12235
11919 2.5015000832919481 -1.0181303721914441 0.43156709975864455 238 232 218 0.79771838596396372 32 11163 24 9098 25 8718 33 9700
11920 1.8505605127230429 -0.25090285439364002 0.22480853053674468 122 118 110 1.2262360646505235 27 9035 25 8724 23 11150 22 13051
11921 1.3698846924201062 0.58178446064296852 -0.092788739571816853 90 90 88 1.0652335204078147 28 9092 25 8735 23 11168 22 13068
11922 1.6350767960977817 0.57118782925626033 -0.10728420888685815 184 205 200 1.793852906588145 27 9055 25 8736 24 8981
11923 0.94401078576387243 0.69234544041162693 -0.10324579028191896 154 148 136 0.61527320578111888 26 9218 27 9133 25 8741 24 9127 23 10991 22 12881
11924 0.94455285027084779 0.70049149099923835 -0.10941736390887206 154 148 136 0.46457989825294632 26 9219 25 8742 23 10992 24 8986 22 12880
11925 0.98042400591080092 0.72844228212741979 -0.1203785927112474 201 192 175 1.5648878864215821 28 9103 25 8746 24 9132 23 11176 22 12625
11926 1.4133141500704687 1.1444933937940167 -0.34333451991188424 38 52 65 0.33915205149684263 26 9238 25 8791 24 9178
11929 1.1257624268910882 0.57224800924517305 -0.070393634924521789 120 121 116 1.2368269567145838 28 9158 29 9599 25 8848 31 9503 23 11167
11930 1.3394653349598824 0.74925713135871264 -0.16718136252304625 159 155 145 0.76193367278089785 27 9193 25 8856 24 9134 23 11178 22 13078
11933 2.610566590487251 -1.7456161569431576 0.72337376404018616 149 205 198 1.5408445762236851 26 9319 27 9224 28 9191 25 8909 23 11429
11934 1.3966702693279076 -0.55550376068742291 0.41472877342735792 133 130 123 1.733685551366092 26 9326 29 9642 25 8911 24 9289 30 11209 23 11342 22 13301
11935 1.2314676031545511 0.14192061100118231 0.1163025827537417 131 128 123 1.1772921388205453 26 9331 27 9234 25 8915 24 9293 23 11348 22 13305
11936 2.0337761227347029 0.24342810960849032 0.017821532706459982 106 105 100 1.5049681592889554 26 9269 24 9296
11937 1.5827349156853472 0.83450375621655948 -0.24335894573904326 183 172 152 0.1451863090264213 25 8933 24 9315
11938 0.89821510970561658 0.83776207657990842 -0.16065742935826191 128 124 115 2.1673186412828578 27 9254 25 8940 24 9245 22 13083 23 11186
11939 1.0002563727893357 0.97561146681735833 -0.23356728344285949 125 120 114 0.84068288515333633 26 9398 25 8945 23 11375 22 13327
11940 1.1666460693883951 0.9948025033908493 -0.25706283472610836 179 172 161 0.80833581575053626 26 9358 25 8947 24 9329 22 13217
11941 2.5438871027875023 -0.25331175408619655 -0.30642546341558341 105 114 123 0.29604369081438087 28 9174 25 9029
11945 1.3432691308604305 1.1117991449178928 -0.32495064295607096 78 83 87 0.86578961064304383 26 9400 25 9053 24 9389 23 11458
11946 1.3432691308604305 1.1117991449178928 -0.32495064295607096 78 83 87 0.86578961064304383 26 9399 25 9054 24 9390 23 11459
11947 2.5325388423251565 -1.4254303797342875 0.25153035090600123 104 109 106 0.35501453466407096 30 11259 23 11513
11948 2.5219658871748596 -1.9200620825749593 0.63306776286858524 240 237 218 0.7717045973504254 29 9740 25 9083 24 9451
11951 1.5425332241594794 0.73006262426998314 -0.41855733624170427 0 0 0 0.27096211613673149 27 9375 28 9337
11952 2.4932433905356381 -1.2659661996891958 -0.10006234249227897 195 187 177 0.63035158804703828 28 148 27 156 25 164 30 5672 26 4536 24 429 32 5816 31 190 23 846 33 4963 78 880
11953 2.5952892733981701 -1.6211142566575478 0.58136385551759451 67 80 74 0.5519964031154263 29 780 36 9062 28 731 27 845 26 822 25 906 31 5131 27 4947 23 6335
11954 2.6084960242477231 -1.8608909590081952 0.72725541147095207 137 180 171 1.006923383782347 26 4917 30 6080 33 5411 27 923 26 884 25 4746 24 5053 29 843 32 1085 36 6130 30 1104 35 9225
11956 2.481913788723551 -1.2018370567180063 -0.11354352926602314 145 138 130 0.9001009846282102 32 10917 27 8521 29 8918 31 9042 25 8251 26 8580 33 9450 24 8633 23 10554
11957 2.5584591120314597 -0.64093934125893282 0.14003521915157174 107 159 157 1.2107397220059146 31 6918 32 8545 26 4885 25 6485 30 10097 31 8484 32 10331 33 9262 29 7106 28 6629 28 8169 27 7643 24 7774
11958 2.5172725148784831 -0.57603411457399034 -0.38652704696745255 207 203 194 1.8952544223346279 30 8123 28 4535 33 7081 31 7760 27 4568 26 6535 25 6253 29 6936 28 7452 24 6582
11970 2.6500168680062406 -0.66697637559276279 0.12445797672168926 2 15 24 2.4951198211511576 28 8153 29 8984 25 8552
11972 1.586620082185132 0.88883008569878508 -0.26704100827891963 25 26 18 0.73790879164734302 25 9077 24 9445
11974 1.5500627378250573 -0.10922921572611308 0.12000364997339952 130 127 120 1.1151314079514254 26 9436 24 9452 22 13464
11975 2.529750029116431 -0.80628298409013011 -0.40771197617841648 218 211 195 0.28721391486196907 27 47 24 244 29 4786
11976 2.5059410850132995 -1.0170681480085038 -0.31050881342715903 214 206 193 0.39809860946546699 33 4911 24 278 31 4707 23 688
11977 2.5274059368949149 -0.68332237020866871 -0.39959138583570225 244 238 222 0.39379698685365 25 43 30 63 24 291
11978 2.4814087571963701 -1.3452375661786029 -0.16413600440208323 222 214 201 0.40385072345793932 32 37 24 320 29 92
11979 2.5023252000264185 -1.0073264434735085 -0.24278686121128182 213 205 192 0.12183991279560251 29 109 30 146 24 324
11980 2.5258229266308141 -0.7185348975163488 -0.34200063503749439 180 176 164 0.17537404691896866 29 127 30 166 24 337
11981 2.5198137652070556 -0.70606286478454361 -0.32528864118161072 192 186 174 0.26979959041080509 27 134 29 181 24 338
11982 2.4894360611738682 -1.1144086743499688 -0.17022373789343931 246 240 226 0.37286897703555588 27 159 28 153 24 374 23 849
11983 2.487428168194 -1.0298654724567289 -0.1973431639381843 193 186 178 0.28833890129410328 26 190 24 380 27 161 28 156
11984 2.5012129953096101 -0.95501442122925784 -0.20687542031436568 241 235 222 0.13938920971816574 27 166 32 5827 24 383
11985 2.4716374693816494 -1.5865861890305073 0.030748225112448138 246 240 227 0.36675116694725007 31 238 24 422 29 199
11986 2.5218992259603663 -0.75210995192719221 -0.24604158337858534 221 214 198 0.6161918896320977 29 229 31 223 24 437
11988 2.4513126541687251 -1.8718483932727104 0.19810092414934508 255 249 236 0.78570553678174637 30 306 24 487 22 7270
11989 -1.3031547111783359 -4.6595330019714547 1.7660130711512552 78 89 99 1.0134814590764616 34 712 35 8918 24 501
11991 2.4013231121610614 -2.8670369086164107 0.62304473319670706 190 183 173 0.3725088761447326 31 451 33 5090 24 578 22 2025
11992 2.4612470535081781 -1.8931695942606828 0.26806209339798859 224 217 201 0.35763923796936786 28 301 24 585 22 1905
11993 2.5186381879787816 -0.74651577525089863 -0.14919704224394267 243 236 220 0.4199737709160592 30 5728 24 597 31 4811 32 8350
11994 2.5430860626471388 -0.41540185067491853 -0.24447260962470166 104 110 108 0.1938835570272579 28 347 31 4827 24 600
11996 2.2362586211373059 -5.4931135917749474 1.6621546434315142 252 253 245 1.0048561612915154 33 5086 34 756 24 700 23 6018 35 8980 22 9820
11999 2.5106240604194396 -1.8982341689415425 0.38668510797097688 143 141 121 0.43060756947209394 29 422 30 604 31 566 32 6016 24 709 23 1206
12001 2.5257313200245282 -0.88752199676832078 -0.0066935469222120245 241 235 225 0.292848914513263 27 451 29 439 24 723
12002 2.5289356418238262 -0.80661666815996325 -0.067340559264789518 246 240 225 0.081259721853797484 28 420 29 440 24 725
12008 2.2039976827808703 -5.2915677196048252 1.8275140898438609 167 174 176 0.62903725757753981 28 501 32 6077 33 788 34 958 35 631 36 813 30 727 24 853 22 2292 37 6806 78 1241 37 691 79 855
12009 2.5763565465419251 -1.8054625172970611 0.36605174643739286 0 6 0 0.90372551424664982 30 610 24 864 28 515 27 440
12010 2.5945092326233796 -1.6942688318999566 0.36505198323173005 3 8 5 0.25715188160631869 33 5292 36 7955 24 868
12014 2.4080827029165239 -3.049889985071367 0.97212671897579095 7 20 13 0.51262607658047932 36 5825 24 990
12015 2.3914345474882892 -2.4751752366893025 0.80898416707406107 105 180 175 2.1764363795263182 29 626 33 1017 24 996 34 6640
12017 2.4490228524602111 -2.0076895211211365 0.54090976065105045 255 248 235 0.52766209067948933 32 692 34 6553 24 1000 33 923 22 7556
12018 -0.72817742463291257 -3.0311698018800506 1.4937591766131482 189 215 212 0.43485821523702467 34 1155 24 1013
12019 2.4009266201837205 -2.7918186037839021 1.0340361836314784 251 253 248 0.46737757998731283 29 710 31 5122 24 1069
12020 2.6112457957517115 -1.4838960096322362 0.40792241325327 21 23 19 0.88590540219249458 27 4916 29 5101 24 1076 23 6266 32 6236 79 6000
12024 2.273744556757074 -4.7295969511940186 2.1660895596688352 218 215 200 0.45697198615563295 32 6322 33 1158 36 6119 24 1205 35 9185 34 1415 31 1162 22 2798 22 7809
12026 2.4621123033336114 -1.8166498143010363 0.78459839560556621 255 249 229 0.29534842269472594 29 838 33 1246 24 1222 32 1170
12028 1.3379651783743947 -1.4900894944721794 0.80565116768941991 1 11 28 0.64817842739122011 31 1225 32 1206 34 6875 24 1289
12029 1.1598565440049091 -0.66611482317884851 0.46693386028549655 112 108 105 0.63497688594645496 31 7020 24 1353 29 7151 25 6515 27 7690 33 8900 23 6512
12030 1.6014979266530376 -0.68098826260207912 0.43126965389460425 134 129 123 0.88103637272583268 34 9219 24 1371 22 3065
12031 2.7163058314062019 -2.2894502065495574 1.1618198316484991 0 0 0 1.7137139446592338 28 913 29 952 36 9115
12032 2.3374865171598613 -0.69961965818025784 0.34677763301707309 136 120 63 0.3315426710624787 29 963 24 1390 23 1999
12033 0.76733077958716556 -0.34751037959788178 0.37872436427189865 31 35 37 0.13742686648576508 32 9697 33 8930 24 1423
12034 1.0106981875754866 -0.49145112084888531 0.41433005546229307 100 99 97 1.430496211902025 26 1119 27 5128 29 5231 33 7368 24 1436 30 6196 30 6198
12035 1.0877324902518071 -0.34856873875334471 0.34133426599963168 117 116 114 0.73430039487443954 32 8662 34 10391 24 1439
12036 1.1517148653722551 -0.45514513030192749 0.3810638843220564 124 120 111 0.51410960465600652 29 999 30 6203 31 5351 24 1442 30 1336
12037 1.1953138090737903 -0.47679298902649514 0.38877139482098794 108 103 97 0.44963339108599421 25 1105 30 6210 33 7377 24 1447 34 10395
12039 1.4476220160103348 -0.35628507839456103 0.31416075809859151 131 128 121 0.27754936941747937 25 1212 27 1197 24 1472
12040 1.619051193042605 -0.47290294978324576 0.33773548809769199 159 155 146 1.0339709010099034 33 1453 24 1475 32 1381
12041 1.8436853324112612 -0.37036677714146493 0.27598261757419684 130 126 117 0.17154584026982911 26 1078 24 1490 22 8014
12042 2.0503664453608454 -0.30877283766130725 0.22744289546599317 114 109 102 0.56249191908804941 31 1388 24 1497 23 2199
12043 2.5474895301719087 -0.38300388377689942 0.18016057118717213 60 72 71 0.17136800615749082 31 1317 24 1507
12044 0.58416784384787557 -0.11400159658466266 0.2818950572664421 99 97 93 1.0862023997018395 25 1167 32 9719 24 1530
12045 0.69580502473722594 -0.031799197482036107 0.25092560234788841 146 142 136 1.3269921021919746 31 8073 32 10408 24 1538
12046 0.73370902979876762 -0.0049004558298668746 0.22649277139986343 168 162 150 0.45294090061019981 31 7150 33 8384 24 1540
12047 0.97160510514512477 -0.0044677954018634419 0.1964515062966255 130 126 115 0.28292575082794119 28 5112 24 1552 29 1192
12048 1.4295580647290556 -0.055936859611653997 0.17901252987925589 238 234 225 0.27756533955323498 27 5235 24 1593 22 3420
12049 1.4295580647290556 -0.055936859611653997 0.17901252987925589 238 234 225 0.27756533955323498 27 5234 24 1594 22 3421
12050 1.9692239746954425 -0.32732344678002501 0.2493922631843673 179 175 163 0.29567571629743256 27 1124 24 1613 26 1174
12051 2.233936554800112 -0.070573987050682879 0.09696759426233735 217 200 172 0.41720949632206733 28 1119 29 1164 24 1627
12052 1.0324384335674346 0.21508873799385975 0.094290127471314711 142 141 136 0.46265922545031113 29 7303 24 1682 22 3391 23 2423
12053 1.0477003504005495 0.18003036994953919 0.11014895698611689 95 92 87 0.3887625926329234 26 1512 28 5166 24 1686 27 1549
12054 1.4193145812570798 0.11747363626483937 0.1051951065163849 116 115 110 0.29999439899695379 27 1431 24 1719 23 2327
12055 1.5038792915537336 0.18545062935623233 0.071373710985576461 86 83 76 0.57901736999410736 28 5136 24 1734 22 3591
12056 1.6443810829337746 0.060402746644268993 0.1138388351384574 108 105 98 0.18028256506323523 29 7284 24 1737 28 5139 31 8038
12057 1.0885510672418859 0.31139245566287987 0.050792301366079734 144 141 136 0.40696987658773648 25 1561 26 5241 24 1823
12058 1.0778936446284928 0.39008961798891406 0.014383255822004117 118 114 105 0.23743255004907091 25 1562 26 5332 30 8673 24 1825
12059 1.0953812015008761 0.3690630434769876 0.024103270389022644 161 157 148 0.084814946971096691 26 5335 28 5242 24 1826
12060 1.1274470145772764 0.25336146088541289 0.075136197789469505 93 92 90 0.52966508660151979 25 5002 26 6924 28 5173 24 1829 27 5376 23 6714
12061 1.1080816344372273 0.35689733985926808 0.028815275317242588 156 153 146 0.5011540946037949 27 5454 24 1832 23 2585
12062 1.302404017012428 0.27743882136347725 0.045075012875666717 107 106 101 0.2323802354739192 28 5184 24 1863 22 3566
12064 1.5022602028297305 0.37571553975631911 -0.015328007800037942 230 226 215 0.37621244309882795 27 1602 28 5194 29 5557 24 1891
12065 1.8223597110426266 0.28886487708285602 -0.0011323018589769929 93 90 79 0.048940974421734777 28 1491 24 1917
12066 1.9883982404962339 0.15505705941147419 0.045614720628121073 121 119 107 0.35262235456685326 27 1352 24 1923 28 1366
12067 1.0999686021605017 0.42342440512271828 -0.0023291015801465932 89 89 87 0.46495189447316576 27 6963 28 6914 24 1998 22 3709
12068 1.1164361788123736 0.5674381378259632 -0.066258653529758293 96 95 91 0.61987091491699065 25 1896 28 6958 24 2160 23 2752 22 3882
12069 1.3017277597078567 0.602519756485137 -0.0981056699889368 79 78 73 0.30167687300261031 28 6965 24 2183 23 2769 22 3896
12070 1.3606070506595722 0.57998381741069704 -0.094137504254220933 131 130 126 0.89041667913290501 26 1888 27 1944 24 2190
12071 1.4049595419136758 0.54118439149841369 -0.080072382804769721 158 157 152 0.27924769899669905 27 5541 24 2193 23 2784 22 3909
12073 1.6478528939176618 0.60631190750229524 -0.12604011018915365 185 202 192 0.34300757203788274 26 1943 24 2221 23 3010
12074 1.8726428894947795 0.48697429862532116 -0.089752237930338166 130 127 119 0.47541580934407901 30 8626 24 2230
12075 0.89599868939771143 0.67500619416059027 -0.094216554209721123 214 207 195 0.22027570881924405 26 5667 24 2283 23 2884
12076 0.97306144807243322 0.70326435047841207 -0.11095704975062813 133 126 118 0.38168988229792244 26 7165 24 2291 27 7952 23 7057
12077 1.2816868266100212 0.63921180610926953 -0.11456871933449947 106 107 101 0.3107237857227792 25 1928 26 5533 24 2332
12078 1.3264493366082837 0.67969546970175965 -0.1366928448086559 95 92 85 0.50317978381297723 26 5535 24 2347 23 2966
12079 1.5028683229579951 0.69261440631257531 -0.153000378351135 202 232 231 0.4298502738974006 25 2147 26 2091 24 2376 23 2988
12080 1.6764356084263332 0.63919967448668813 -0.14104124558255191 148 151 144 0.50891977648939457 25 5353 24 2398 23 7009
12081 1.0769788464865513 0.77514722583404716 -0.15355246242984627 156 152 141 0.25813007531531684 25 2260 29 7595 24 2492
12082 1.1006409449307761 0.78022122811837025 -0.15788466729984219 103 99 96 0.48660186721074306 26 7207 29 8361 24 2496 23 3316
12083 1.4469687431977787 0.72827360868017244 -0.16232758997467897 85 78 70 0.29248066032534958 25 2331 24 2562 23 3202
12084 1.4221374019022099 0.74607505554310605 -0.16847632930685844 161 157 147 0.34123557481922395 25 2327 24 2564 22 4444
12085 1.0308168999327423 0.80964471764586576 -0.16342548440800006 218 211 194 1.1266224053481015 26 5816 30 10341 24 2690
12086 1.2355191268107284 0.84102204838265249 -0.19609239676059362 120 121 116 0.50261102580155792 27 7213 24 2729 23 3351 22 4410
12087 1.3346663601791318 0.8412288116963681 -0.20806556159110967 89 88 84 0.40088627888890721 25 2509 24 2746 23 3372
12088 1.4820763354811179 0.8129907922245766 -0.20622750622902153 71 73 72 0.58248412753885248 25 5506 27 5813 24 2756
12089 1.5346396987704101 0.78188803527430806 -0.19241776742249814 143 140 131 0.80511274959576806 26 5642 24 2758 23 3386
12090 1.558463716709281 0.84316191584431432 -0.24214817497402524 99 94 81 0.76241763413026031 25 5510 24 2766 23 3400
12091 1.2858287273885913 0.89358296895379108 -0.22340544831490547 173 172 167 0.39973616279661139 25 2681 24 2904 22 4638
12092 1.2990587319033475 0.8837364031007825 -0.21861383097166312 130 129 124 0.19212964137544689 25 5573 24 2906 23 3535
12093 1.037931957523641 0.89426954403566472 -0.20101930343070584 235 227 214 0.17389042331891072 27 7281 28 7252 24 3014
12095 1.1024232339695172 1.0482085385912359 -0.27340662632846285 122 114 105 0.15335427531094586 25 5826 24 3664 23 4187 22 5343
12096 1.0258297413473261 1.0702554617272151 -0.27652706908535973 118 114 102 0.17065624102400931 25 5868 24 3786 23 4378
12097 1.0798408377526214 1.0733046908643384 -0.28423214671386532 122 118 107 0.22899961441564762 25 3485 24 3807 23 4395
12098 0.95186781145620358 1.0981799266456618 -0.28236348060116984 51 42 32 0.8536890520039836 25 5990 24 3929 23 4523
12099 1.1694997855180729 1.1225371481218807 -0.31315377430690094 9 28 43 0.27154017041728146 25 6026 24 4027 23 4805
12100 1.3265042368971025 1.1317653201694602 -0.33084711990128102 96 96 94 0.12961034769762822 25 3826 24 4061 23 4840
12101 1.1063615315846638 1.1277781381399485 -0.31052915699729106 115 121 119 0.23360963376216964 25 6089 24 4178 23 7745 22 5728
12102 1.2812676187071816 1.1588880317400421 -0.34037156856769929 67 80 96 0.38670051123688043 25 3949 24 4378 23 7851
12103 1.2875388512198587 1.1569042638078109 -0.33847334076052177 64 77 93 0.18069701864563101 25 3950 24 4379 23 5006
12104 2.5476101003757616 -0.4857736072510207 -0.4541809338638978 99 109 119 0.78300936372220697 26 4508 30 8114 24 4567
12110 2.2993384958612881 -1.0280082388214182 0.047385833033149589 252 251 238 2.4225418815659832 26 4666 31 4868 24 4791 30 5765
12112 2.5445012264093076 -0.66879919312404623 -0.088825606931143788 217 219 210 0.30905132343614089 31 6788 24 4798
12113 2.5283027953003963 -1.9632586914458725 0.46815635219480661 90 89 70 0.4528649965835298 27 4785 32 6083 24 4861
12114 2.5131017554393456 -1.0432902776010573 0.11801647513318053 232 226 210 0.60499412547816001 28 4702 32 9562 24 4868 26 4717
12115 2.411523318187105 -0.16865540155292044 -0.24555809175690957 0 18 53 0.42367144828283454 27 4742 29 572 24 4869 30 552
12123 2.3696834622969392 -3.5995580338787079 1.3836551676482904 202 216 223 1.0833033907829457 26 4836 28 4792 29 5093 30 5988 32 6228 24 4944 34 9041 31 5118 33 5334 23 6254
12124 2.4476199551666076 -2.0217981706432209 0.6348711054469468 232 226 210 0.095826744199517172 33 7273 24 4956
12129 2.5828050723751912 -0.0096006499971768161 -0.125842108462842 0 0 0 0.04159930095360849 25 6510 29 7124
12130 0.2353005510959956 -1.186860478626363 0.79507035719500141 157 156 151 0.71088036598100013 32 8592 34 9145 24 5081 22 2909
12131 2.5544776279932297 -0.58703270769856419 0.26704815616506411 83 84 79 0.78688713479859196 29 5260 24 5129 27 5060
12132 1.2325177040693509 -0.25836282713311509 0.28644004419075919 150 146 137 0.65171551566168329 25 6548 27 5139 32 9705 24 5147 23 6569 22 10126
12133 2.1084659940181747 -0.5643243522885133 0.32975884531702709 222 204 168 0.14433371589652 26 5044 24 5169
12134 0.89626453053777688 -0.16886138386080171 0.28092709998498633 144 140 131 1.2793103215916271 31 7108 32 9727 24 5192
12135 1.1758658372377035 -0.12405103295552058 0.23367717244320158 117 110 102 0.53030489124090596 27 6854 24 5205 23 6625
12136 1.2871614017986155 -0.004498046414652325 0.17017257851391668 166 160 148 0.48688094204295285 26 6875 24 5211 23 2301 25 1313 22 8085
12137 1.4595610499753244 -0.046515132843095441 0.1792050010360548 66 65 60 0.22750598672650835 26 6878 24 5220 22 8100
12138 1.8564198573087962 -0.065043812901148551 0.14755431878759692 125 120 114 0.24316842359868843 27 5167 24 5230 28 6751
12139 0.70360801973542142 0.23428172602129876 0.11715804488796386 142 134 121 0.70762726737783066 32 10805 24 5249 23 6682
12140 1.4216397211167773 0.0010562691172103927 0.1602679291704972 130 127 122 0.17328063401666854 25 4942 27 6860 24 5296 23 6645 22 8098
12142 2.1344760954767854 -0.020074743816446861 0.1156809263607054 158 154 140 0.22334400535379126 26 5141 24 5318 23 6665
12143 0.97119474230231684 0.31903617926244765 0.054825340587590018 119 114 108 0.31548223261087333 28 5227 24 5346 26 1638 27 1672
12144 1.0822808973001525 0.38695749596498785 0.014487684157775559 202 187 172 0.15219414414159307 25 5077 28 6863 24 5362 23 2583 22 3542
12145 1.1573691664617896 0.39881667240766061 0.0051479603657229346 102 99 92 0.25992147537657029 26 6977 24 5373 27 7814
12146 1.0048688280394893 0.5721152391385772 -0.068291224665451261 116 115 110 0.37093177794792842 25 5143 26 7066 24 5433
12147 1.0266039364490944 0.51642643355456552 -0.036441597735290994 150 149 144 0.41745724473263468 29 8252 24 5434 27 7869 22 8223
12148 1.062531546803003 0.42844182340927717 -0.0035800898258728704 120 117 112 0.5088283874142695 25 5078 26 6974 28 6911 24 5436 22 3702
12149 1.1715918775383816 0.51048013628813727 -0.0437558863066815 140 139 134 0.20779894014112343 26 7025 27 7000 24 5446 22 8233
12150 1.6761376990448782 0.45519004598038859 -0.062978765497920738 113 107 97 0.42472945639659487 25 5176 29 8224 24 5462
12151 0.88821001905300145 0.63387631110632636 -0.080675146572427969 115 112 105 0.48286354750231908 25 6719 26 7918 24 5499
12152 1.1211348863260979 0.5534294336458685 -0.061590361113219257 152 152 144 0.6795497538714943 26 7023 24 5517 23 6885
12153 1.4622837805622131 0.56046759440119331 -0.09486125333474997 130 127 124 0.46139464082998061 26 5365 28 7780 24 5546 22 8345
12154 1.8352228540605007 0.56369067385698046 -0.12293967325460242 125 120 114 0.37924234434838472 25 5260 26 1752 24 5564
12155 0.88694510307759955 0.70048486821157652 -0.1043755050001017 206 197 184 0.48296501400328606 27 7950 24 5591 26 7957 23 7055 22 3992
12156 1.3694642925347176 0.63714521278643732 -0.12055863213725211 107 104 99 0.24615063761519193 26 5537 24 5619 27 7060
12157 1.1170954941970352 0.72009902149883231 -0.13408560266249644 202 198 189 0.38160191293020801 27 7135 24 5687 23 3132
12158 1.4176223769956815 0.76144669729498415 -0.17853587496769466 170 163 153 0.25623613626220049 25 5413 24 5719 22 4450
12159 1.4771620548723592 0.71989544415421503 -0.16155914250159284 123 119 108 0.27715280834873984 25 5419 28 5459 24 5725
12160 1.4907140348428218 0.7801156504473673 -0.19261148391367772 157 153 143 0.3555679226127535 25 5428 24 5730 23 7110
12161 1.613384519361259 0.81998584749378767 -0.23837388325593395 162 150 136 0.070165640770210896 25 2367 24 5742
12162 0.94130376537248139 0.86257119480922451 -0.17702604810639816 179 171 160 0.32320447644213957 26 8018 24 5826 27 8459 23 7223 22 8545
12163 1.1330581590943241 0.84487001070120804 -0.18768702619956792 151 147 138 0.46676063018302116 29 8842 24 5840 23 3502
12164 1.4784818902950689 0.90825711012410171 -0.24421078489544143 0 4 10 0.20230049690378674 25 2838 24 5908 23 7340
12165 1.4692040279558152 0.92409569938069314 -0.25251926451123008 2 7 17 0.39721711467046389 25 5637 24 5909 23 7342
12166 0.95384324078272997 0.98343218946001587 -0.23034114026993846 187 179 166 0.45900443457996304 26 8082 24 5994 23 3953
12167 1.0912072928197845 1.0626700027948797 -0.27959991049974603 111 107 98 0.098319720461114771 26 7449 24 6123 22 5341
12168 1.1580107961217629 1.061527567218097 -0.28532529454627548 134 133 128 0.42057087336062787 25 5884 27 8078 24 6137 22 5362
12169 1.1572602869344495 1.0664802803865963 -0.28766132897070107 94 93 88 0.26294790750205399 25 5885 24 6138 23 4414 22 5363
12170 1.3473153086081666 1.1076110108845245 -0.32341333912068904 102 111 114 0.46390288963977139 25 5964 24 6209 23 7694
12171 0.98506042693705487 1.1069094629075225 -0.2899003716593313 172 169 157 0.38315261541953466 25 6001 24 6250 22 5497
12172 1.0615612340383913 1.1072582184163522 -0.29645912105182876 119 113 102 0.58233567601542313 25 7077 24 6264 23 4567
12173 1.2286558991943339 1.1089492768249438 -0.31305417893980975 48 62 75 0.7259539154774135 25 7744 24 6280 23 9947 22 10675
12174 1.0171928373825196 1.1211052286682499 -0.29790355309559824 215 215 203 0.22290947198442138 25 7123 24 6337 22 5517
12175 1.0974510567639184 1.1358018515125308 -0.31212685290533865 44 46 45 0.77173656823569892 25 6088 24 6351 23 7746 22 5726
12176 1.1710345808006064 1.129068447862851 -0.31771197101750609 31 47 63 0.39409484958482777 25 7084 24 6358 23 7755
12177 1.1759879527874275 1.1295014124379275 -0.31834507916312482 41 56 75 0.67195022301835083 25 7085 24 6360 23 7757
12178 1.31199795365915 1.1636762657735924 -0.3446289722827684 94 95 97 0.36018623619241996 25 6115 24 6451 23 5011
12179 0.38967625331014716 -0.47438693247991137 -0.21087068484289651 41 30 24 0.8586965562963137 34 10081 24 6554 22 1453
12181 0.36593098656505874 -0.48956478790679558 -0.1014811388235395 40 35 38 0.7954215077092478 34 8785 24 6580 23 5875
12182 2.5461835541969382 -0.4270454373565673 -0.34931309487565887 85 94 102 0.57009341379890144 25 7242 29 6960 24 6617
12183 2.5536549481180177 -0.40979994020466837 -0.35733230659884924 79 89 98 1.6107765298113144 26 4578 27 4617 28 7470 24 6618
12191 2.6299883024318773 -1.5796819106163638 0.67468792900016061 3 30 26 0.25958770110074508 26 4959 27 5010 24 6867 28 4888
12192 1.0989013689897476 -0.6547915758460725 0.46397624644363394 55 56 61 0.92910355990667515 26 7731 28 7631 30 9501 31 8540 33 8899 24 6877
12193 1.2933376093775006 -0.89224894966610391 0.5533481598908575 106 103 97 0.79423609163386433 28 7634 29 8085 30 9482 34 11012 24 6883 23 8560
12194 1.6503016580505612 -1.0217827735864236 0.57164886215827071 152 148 137 0.56266740500365231 25 6501 27 6788 28 6655 24 6886 26 6770 23 6470
12195 1.6043521754232883 -0.61507631112097527 0.4004049361389771 127 124 119 0.22935586668573138 27 6808 24 6908 23 8564
12196 0.6558730747778565 0.016485796072729646 0.22931210176161068 96 93 86 1.3630231352795541 32 10781 24 6936 22 8051
12197 0.98172718002312254 -0.21710164326720591 0.29523037501176069 119 116 111 0.84885353166121269 27 7736 30 10167 24 6939 26 8351 29 8690
12198 1.5421068287637543 -0.024624814486882404 0.15559388565485413 139 139 133 0.39297134054605043 27 7745 24 6944 29 8709
12199 1.0051150846517587 0.089472539221406272 0.15975086511589751 173 168 156 0.8474909563484232 30 9568 24 6967 22 8066
12200 2.0996203964733806 0.0077566407554580871 0.09547338559129552 139 135 124 0.19814725413570686 33 8423 24 6989 23 8651
12201 0.80217094781434917 0.34979625527814084 0.061290119465806904 132 125 115 0.81717762370563185 27 7829 31 8958 24 7006 23 6779
12202 0.94312138200157203 0.3188327525144361 0.062346783314133507 114 115 110 0.50707456462706291 26 8388 28 8627 24 7013 23 8705
12203 1.2531359278148055 0.32434438514115116 0.030325745956980184 107 104 99 0.32905602626832442 25 7519 27 7782 24 7031
12204 0.92386377048457902 0.49141339698073572 -0.015574011573019986 95 95 93 0.75972051295560006 27 7867 24 7061 22 8219
12205 1.4186896772059654 0.49168839479663395 -0.061766952127484329 100 99 95 0.50138389391543314 25 6701 26 6989 24 7071 23 8728 22 11471
12206 1.2066715810660733 0.58734897991368618 -0.084796266383819013 119 119 113 0.4439186588504796 27 7876 24 7106 23 6888 22 8328
12207 1.3583243104574609 0.65137864800275802 -0.12634177623774923 150 147 142 0.21320669108300022 26 7080 24 7151 23 8795 22 10356
12208 1.1965530385066891 0.74114845016579756 -0.15080166863071509 109 106 102 0.25263666755433001 26 7947 24 7189 23 8837 22 10386
12209 1.3324804558569885 0.7512089073964362 -0.16793200428334656 132 128 119 0.42242273502104261 26 7936 24 7196 23 8840
12210 1.0208083452181556 0.82147017431977487 -0.16720419814083581 168 161 145 0.73892535993226782 26 8490 27 8441 24 7223 23 8872 22 10429
12211 1.4769827136053828 0.81901362682881396 -0.20693114096929724 99 102 101 0.37464494774134077 25 6849 24 7239 23 8891
12213 0.93805768958541935 0.85239690271648438 -0.17177972897885738 137 128 119 0.43462326987942679 27 8458 24 7254 22 8543
12214 1.0066095084360063 0.83724466108081663 -0.17320171825981659 204 198 186 0.301631704788349 26 8489 24 7257 23 8907 22 10428
12215 1.2139881901856464 0.89557059614659973 -0.21839240085756456 89 88 84 0.68713265523779288 27 7980 24 7272 23 7246 22 10478
12216 1.2627623875058318 0.86390717402719031 -0.2081811778747206 109 110 105 0.65402201999599863 25 6880 24 7273 23 7254
12217 1.5528078665110923 0.84333034566125209 -0.21791057262714347 52 59 67 0.64576364883667681 25 7668 24 7279 23 9856
12218 1.1684528850075497 0.91010036305057074 -0.22111539462138977 108 107 100 1.2148802037586182 26 7999 24 7295 23 8956 22 10471
12219 1.5301271176917655 0.98658709775107878 -0.30613399762815491 64 71 77 1.3713701625346355 25 6924 27 7220 24 7305
12220 0.95086458649757755 0.99177459060886219 -0.23544160407182171 195 187 174 0.4303418199879947 26 8523 24 7341 23 7444
12221 1.04708801222212 0.98661816381567446 -0.24257937053129516 196 190 178 0.54706729348009497 25 7694 27 8476 24 7350
12222 1.2152014860492892 1.0039602126305076 -0.26612290409633371 96 95 91 0.98443677139057517 25 6971 24 7356 23 7465 22 8859
12223 1.0433967455214568 1.0242871997942793 -0.25778051053730039 122 118 107 0.6413782667596285 26 8527 24 7374 22 8845
12224 1.2094345719597972 1.0608975491150026 -0.28916253996638519 58 70 79 0.59241285310763092 25 7720 24 7407 23 9039 22 8932
12225 1.0238324757157853 1.0708010736723039 -0.27759103325391749 192 187 175 0.25954288422244276 25 7019 24 7416 23 7593 22 8917
12226 1.1058882435155186 1.076698761357012 -0.28603821574746502 119 116 111 0.23357767587416764 25 7025 24 7422 23 7609
12227 1.1639114312715553 1.0865308586983051 -0.29874753505292889 72 73 77 0.46573127114133134 25 7026 24 7423 23 9061 22 10646
12228 1.1612593629569634 1.1101482968651755 -0.30815233616383864 26 39 53 0.20107097569823645 25 7743 24 7444 23 7668 22 9046
12229 1.1865199871417194 1.1110909553252402 -0.30841855428628229 47 62 75 0.13099144763605328 25 7763 24 7445 23 9946
12230 1.2823421465379821 1.1260607093649777 -0.32533755019816696 34 48 65 0.44548927550981771 25 7097 24 7451 23 9143
12231 0.91736426884005595 1.106237909747342 -0.28180492098828491 192 183 167 0.59921203150868174 25 7115 24 7468 23 7642 22 5282
12232 0.9979999398416014 1.1110779620013644 -0.29043471530250481 65 62 58 0.48283285412614529 25 7121 24 7474 23 7726
12233 1.0518091274542629 1.1195094197897937 -0.3019518478186059 169 165 154 0.39586614793813579 25 7129 24 7479 23 9128
12234 1.2202534969968304 1.1466885460121716 -0.33065715179168459 30 47 63 1.2152315997029717 25 7788 24 7493 23 9137 22 9173
12235 0.98801604948836164 1.1240569820699842 -0.29186339045036186 93 90 83 0.59143006383793206 25 7154 24 7510 23 7724
12236 0.29984863204217355 -0.46709654408835022 -0.16355490257732008 145 179 205 0.64023430883350674 34 11309 24 7568 23 9353 22 11047
12238 2.5033975714549896 -1.1593022031677871 -0.16055025231947403 241 235 221 0.81228002372768027 25 7219 26 7541 27 7482 24 7590 23 9364
12239 2.5109809387658224 -0.83800634341306213 -0.25545482311720491 236 230 214 0.62626578692923485 28 8037 24 7595 27 8114
12240 2.4836536215732212 -1.4941757781126916 -0.014337738637413002 233 227 215 0.81153795660629979 30 9303 32 10198 24 7608
12243 2.2046494542462356 -5.3965718577772579 1.7395502518468824 156 178 192 0.94624315863655262 29 8566 30 8210 31 6822 34 8931 35 10664 36 9950 24 7655 33 8768 37 10501
12249 2.3911260863727435 -3.784591422284711 1.4632815274736337 16 38 35 1.1130586923618651 31 8476 32 10297 34 11382 24 7732 30 10071
12253 2.6471207480204377 -1.7090435654280047 0.67314718829961184 1 20 15 1.427759871285039 25 7380 26 7684 27 8255 24 7767 28 8168 23 8492
12254 2.4526821229038909 -0.99401423015621959 0.43689228493004506 199 198 179 0.33167236520790078 32 9655 24 7782
12257 1.1938233033147416 -1.08757096520011 0.64656111770745495 38 51 64 0.55228914995102996 27 8284 29 8653 31 8533 24 7797
12258 0.5660771283150513 -0.37376961013270715 0.41187339226841596 167 163 153 0.19438360457226098 32 10755 34 11437 24 7816
12259 0.64603433270256916 -0.2171603298735558 0.32420662546093976 96 96 94 0.69128402314021187 31 8912 32 10767 24 7818
12260 1.1238265924202642 -0.34018925053946902 0.33493687183078463 99 100 95 0.87942167059487897 30 10743 32 11001 34 11881 24 7823
12261 1.3633217552271162 -0.45442615388469465 0.36345839479083042 136 133 126 0.93545759132173578 28 8225 29 8123 31 8555 24 7827 23 9629
12262 0.62057165698586614 -0.013040067962140675 0.24035274011398544 148 143 134 0.60663683332056018 25 7459 32 10404 24 7843 23 8621 22 7981
12263 0.89903688421161765 -0.12960326014098381 0.2666664629727229 121 116 110 1.8103045459285587 32 11005 24 7850 31 8915 22 10120
12264 1.1145554410948044 -0.0081418333568046841 0.18913209183537222 133 129 120 0.6590373957600697 26 7797 29 8707 24 7855
12265 1.1552013265032606 -0.20988388515052372 0.28412208573696141 132 128 117 1.085636876060424 26 8354 32 10769 31 8901 24 7857 22 10124
12266 1.2959885366961921 -0.13379815979886928 0.22220504110790817 147 140 132 1.00222009489195 25 7452 26 7784 24 7860 22 10128
12267 2.0180589999410756 0.10681127728009307 0.055829932371609943 112 109 99 0.12053172625068147 27 7749 24 7899 23 9664
12268 0.78334131340270685 0.39610689911676311 0.039602934382674461 151 144 134 0.26278676512698973 31 9169 24 7910 22 10199 25 7511
12269 1.3123398992158397 0.34325326630837294 0.017896704464185752 141 137 128 0.41836308508912989 26 7825 24 7917 23 9720 22 10212
12270 1.0297904747521764 0.52880509422470912 -0.040550958160406332 124 121 116 0.68886806824980873 28 8313 29 8768 24 7941
12271 1.3913426444739907 0.595388148790994 -0.1008344308250514 90 89 85 0.51384667225391012 27 7843 24 7964 23 9746 22 11501
12272 1.1523583430141244 0.71083711433508656 -0.13332706036895267 113 110 103 0.48173441374142251 26 7933 24 7984 22 10343
12273 1.1731974548429687 0.73176170894316206 -0.14351932907425821 151 148 141 0.56316924906929255 29 9116 24 8010 23 9805 22 10384
12274 1.5461556613677676 0.76226705536302075 -0.18617241594469669 163 159 148 0.32536421038029423 25 7619 24 8016 23 9810
12275 1.620261226076058 0.74163666881135659 -0.18336950119015027 147 139 130 0.27554910088760448 25 7621 24 8018 23 9812
12276 1.153401172907996 0.81597424256708773 -0.17596009503309618 108 103 99 0.76613012552228654 25 7640 28 8390 24 8037 23 8878 22 10439
12277 1.3438351469689016 0.83693956520463775 -0.20615539059739399 90 90 88 0.84294821452229785 25 8137 24 8042 23 9827 22 11589
12278 1.184030308052052 0.89649356632612975 -0.21866786433524324 125 122 117 1.0008261803042442 28 8720 24 8058 22 10474 23 7240
12279 1.2158757638905435 0.89066077395791687 -0.21911975935271752 162 158 147 0.68274927396031238 25 8145 24 8061 23 9848 22 11586
12280 1.2338117531186386 0.85428310622935455 -0.20241980046294267 117 116 111 0.83560357789975814 29 9140 24 8062 22 11585
12281 1.1352183667352234 0.94261268027759293 -0.22888007563944118 145 141 130 1.0844785821010416 26 8809 24 8087 22 11613
12282 1.201489256645039 0.9877083128423747 -0.26003220457264992 111 110 106 0.92744766532806067 25 7699 24 8104 22 11635
12283 1.0586027359740811 1.0583420081145289 -0.27549873436412248 209 201 188 0.75820227757858927 25 8182 24 8121 23 9909
12284 1.1721862340393658 1.0746266998733265 -0.292953592975084 79 80 82 0.5973372190863242 25 7729 24 8125 23 9062 22 10647
12285 0.96115258190293373 1.0926125238465718 -0.27934037831463177 199 191 178 0.56692447724217787 25 8200 24 8144 23 9083 22 10609
12286 1.222154418808129 1.1133978745651261 -0.31313667918175975 55 69 80 0.42033718329446512 26 8550 24 8151 23 9100
12287 1.0200858631616543 1.1122668582009552 -0.29387448349946882 218 212 195 0.38898755716782657 25 7780 24 8164 23 9086 22 10632
12288 1.3484861640811479 1.1463652146984376 -0.34083678387652261 13 17 26 1.4133943439752328 25 7106 24 8173 23 9148
12289 1.2143677665823018 1.1560532703790698 -0.33518800805657545 49 65 81 0.33332958017546438 25 7789 24 8182 23 9179
12290 1.26172392725786 1.1556129704908198 -0.33687141478163485 6 23 39 0.73455947069749283 25 7793 24 8183 23 9184
12291 0.36509920586881367 -0.48943300156132918 -0.078808170231972521 151 181 205 1.0636188272799394 34 11821 24 8213 23 10096 22 11086
12292 2.4987715274785152 -1.0387646925608496 -0.21207000850486468 233 227 211 0.74986015556745533 28 8035 30 10369 24 8220 31 8758 27 7473 23 10542
12293 2.414732762551691 -1.9143305459903728 0.20744952724074794 196 188 175 0.44341654022804883 28 8054 24 8238
12299 2.5906387461272979 -1.5992118532388095 0.39686523832199422 195 196 190 0.2863636028183591 28 8103 29 8597 24 8304
12303 2.5985411550043112 -1.5619283439105336 0.55090649876501685 59 73 70 1.0555883787432103 26 8263 27 8233 24 8343 23 10208
12304 2.4031504072262679 -2.6873481860163899 1.1847396245950004 249 245 228 0.62970158729378622 35 11085 24 8355 34 10983
12307 0.8147978243686258 0.2262135070331332 0.11282709456525983 187 181 167 0.51011060419612064 27 8682 31 9286 24 8423 23 9677
12308 0.82526262621373425 0.36713843966167503 0.050156808870380556 150 143 135 0.42798820254100461 30 10959 24 8436 23 10317 22 12135
12309 1.2436530799972385 0.47123236201691776 -0.039478890163937415 89 88 86 0.67515758918624458 28 8652 24 8460 22 11432 25 7536
12310 1.2230382841146712 0.61719591953837682 -0.095845851911617555 96 97 99 1.25423913596332 25 8088 27 8942 24 8476 22 12192
12311 0.9084868287185569 0.66957643956027535 -0.091973031429522775 183 176 160 0.22467495956300351 28 8898 24 8486 22 11458
12313 1.0987747312222329 0.8923963585114999 -0.20662329849746389 176 169 159 0.63617263421082992 25 8448 28 8923 24 8518 22 11583
12314 0.96609227785971508 0.90992898350981566 -0.2002714151474668 167 161 148 1.2605434160460316 26 8812 24 8525 23 9865
12315 1.1138963587230402 1.0496688108495036 -0.27555767034929007 128 125 117 0.4963250564668773 26 8837 24 8555 22 12312
12316 0.96658618593773671 1.0961764925652715 -0.28239493378000924 198 192 178 0.71060261605133623 25 8201 24 8571 23 9941 22 11669
12317 0.97705709959608344 1.0897329012936821 -0.28029167294867413 118 111 105 0.51685875677895921 25 8470 24 8572 23 9942
12318 1.2333177952152856 1.1129799055475635 -0.31310661396983813 4 19 42 0.82918725983292152 25 8192 24 8575 22 11704
12320 1.2148871024019099 1.1404904001117471 -0.3220962900760726 28 45 61 0.9444823189393714 25 8479 24 8593 23 10497 22 12358
12321 1.2247946366319389 1.1469088221285704 -0.33154271627762072 23 41 56 1.6287853074032117 25 8218 24 8594 23 9972
12322 1.3422239273125727 1.1545023712332048 -0.34444097088914682 46 49 56 0.17911879386709831 25 8480 24 8598 23 10498
12323 0.36442887168471472 -0.46565509397119154 -0.21408581201124188 32 14 6 1.0912803862329388 34 11599 24 8617 23 10069 22 11874
12324 0.28725076764700375 -0.48913187639012734 -0.14219381205167203 54 39 39 1.1091014824857399 34 11315 24 8618 23 10077 22 11900
12325 2.4728673396287268 -1.4736762420110938 0.0043892139235896712 197 188 179 0.44911561020511226 29 8913 32 10630 24 8630 31 8765
12326 2.330162249320245 -4.9923611085119406 1.9104936726480335 191 216 213 1.7077762362234683 26 8635 27 8564 28 8524 34 11656 24 8669 29 8944 30 10435 32 10946 31 8817 33 9229 23 10614 22 12512 35 11254 36 10000
12329 1.0832133672624222 -0.60006655128238384 0.45363122077653711 125 124 119 1.1199949220867429 27 8644 30 10740 32 11171 33 9526 24 8730 32 10996
12330 2.0335859978324526 -0.23025914791276544 0.19950366399535757 98 95 88 0.59396782381245172 25 8370 26 8703 24 8741 28 8581 29 9013 23 10266
12331 1.4397212181538075 -0.011628869126261071 0.17107671999280363 104 100 99 0.95973972649086881 25 8582 26 8945 24 8750 23 10702 22 12578
12332 1.5929327329239165 0.77164689919693741 -0.19650755753021018 126 119 111 1.1101982626858919 25 8426 24 8804 23 10750
12333 1.4494545318655265 0.92349093043447339 -0.24581782453305095 15 28 42 1.3157591690732513 25 8450 24 8826 23 10434
12334 1.0207117734397351 0.95322175222451111 -0.22330788395688381 132 129 121 0.97391148865552379 25 8452 29 9558 24 8831 22 12254
12335 1.1697273038322067 1.0229753428513395 -0.27011801461659224 112 109 104 0.91478612311110774 25 8649 24 8839 22 12676
12336 1.040883223414832 1.1093154736429891 -0.29321618807096683 167 161 147 0.94313699976341558 25 8660 24 8854 23 10466 22 12320
12337 1.1047568394854004 1.1051895345154907 -0.30043156891397371 191 185 171 0.46769662735856282 25 8661 24 8856 23 10467 22 12321
12338 0.90664049383965073 1.1127375404692783 -0.28540825253997976 198 192 176 0.81373112063763731 25 8476 24 8862 23 10477 22 11668
12339 1.0614197416715483 1.1237270878700885 -0.30103159303836047 72 69 62 1.4395887855695677 25 8673 24 8865 23 10481 22 12329
12340 1.0924254491834557 1.1432186011651453 -0.31589392847637698 129 130 124 0.60235694880499335 25 8481 24 8874 23 10491 22 12342
12341 1.1111036367646145 1.141199551389257 -0.3152874695489471 42 55 68 0.96585294263694565 25 8212 24 8875 22 11711
12342 2.4992091890562924 -0.90479714113609444 -0.24464190127729418 195 188 178 0.20468008692337877 27 8827 28 8759 24 8888
12343 2.4804375193334613 -0.87639751435113722 -0.24985433996002387 195 188 178 0.55419959256961682 27 8828 28 8760 31 9219 24 8889
12348 1.0696375131222164 -0.74211454056665616 0.51061179947141822 20 38 58 1.4197184013935249 27 9033 28 9076 30 11057 31 9367 32 11319 33 9826 34 12123 24 8948 23 10950 35 11720
12351 1.2710442541282723 0.28734251896758251 0.02961882716821098 141 138 130 0.91074541750771809 25 8590 27 9047 24 8966
12352 0.93684308493391077 0.41489559160713496 0.020800971937927147 163 158 146 0.75490034521857885 25 8603 28 9090 24 8974 23 10965 22 12600 27 9125
12353 1.1682402038296145 0.45019338449213253 -0.015270453797975201 107 106 104 0.60724113376783984 28 9008 29 9447 24 8975 23 10967
12354 1.4838863640411561 0.36507383630113288 -0.0040546286751537665 238 237 230 1.6080452584434368 26 9105 27 8922 24 8978
12355 0.87822017285086351 0.63464033414004128 -0.072919661085758286 120 116 107 0.54608605199229354 27 9065 24 8983 22 12614
12356 1.0314455166825065 1.1073012398342366 -0.29196619558078574 134 127 115 0.73943826368885501 25 8785 24 9034 22 12698
12357 0.94525086936760094 1.1309859625331351 -0.29925589174473771 102 95 85 0.50670929797118391 25 8804 24 9041 23 10821
12358 1.0242338857450086 1.1196137836111562 -0.2973821531800469 64 57 51 1.2491578546701225 25 8796 24 9044 23 10826 22 12697
12359 1.0431968882792901 1.1244876072988164 -0.30240838091809724 68 61 53 0.38268212082839015 25 8670 24 9045 23 10827 22 12702
12360 1.2301868163434051 1.1379193720151337 -0.32737088217743454 1 4 13 0.5819356195550246 25 8787 24 9046 23 11055 22 12948
12361 1.2301868163434051 1.1379193720151337 -0.32737088217743454 1 4 13 0.5819356195550246 25 8788 24 9047 23 11056 22 12949
12362 1.3173924513360182 1.1363446129193333 -0.33344734611890464 4 7 19 0.40747860675158648 25 8663 24 9048 23 11057
12363 1.0717016825393308 1.1392216487809879 -0.31158548811660186 132 128 117 1.0968257198657159 25 8678 24 9050 23 10829 22 12333
12364 1.1505545788217537 1.1429301787320261 -0.31796775707007913 29 45 60 1.1492409872846372 25 8806 24 9051 23 11062 22 12944
12367 1.1262358189300623 0.57013754150921714 -0.069149380087047282 136 136 131 0.96049423766549558 28 9157 29 9600 24 9122 23 11166
12368 1.3032536323483708 0.84971467967930148 -0.21249651498656841 95 95 93 0.43872785125085589 25 8751 24 9138 23 11000 22 12895
12369 0.92656644894573925 0.8356403330588712 -0.16337359866964749 137 128 119 1.2267478346200333 26 9230 27 9141 24 9141
12370 1.3479608497434683 1.0900537128693801 -0.31820150717204443 13 31 45 0.8282762530999509 25 8652 24 9159 23 11034
12371 0.96401464217809629 1.1052510257131818 -0.28584815892566745 67 58 51 1.4080473217326159 25 8886 24 9164 23 11044 22 12692
12372 1.0645879053702068 1.1144923677536853 -0.29963652450209571 194 186 172 0.81936614832439614 25 8879 24 9166 23 11051 22 12932
12373 1.1691203647922397 1.1035697316569844 -0.3008655639216542 19 37 52 1.6665184748301178 25 8662 24 9167 23 11046 22 12940
12374 0.93866947970604897 1.1126111093473205 -0.28731121019476924 215 208 192 0.73402480018647154 25 8885 24 9170 23 11049 22 12930
12375 1.0348341150440519 1.1207655123289553 -0.29863855276487322 85 74 68 1.0496453332116691 25 8797 24 9172 23 11050 22 12937
12376 1.0836996285731262 1.1249775474248567 -0.31236095879652814 170 164 150 0.97098217971312706 25 8881 24 9173 23 11294 22 13107
12378 2.5268484819665193 -1.910282146120567 0.50533999383910411 237 226 204 1.0839372804346619 30 11037 24 9199 13 9119
12379 1.0979880789431311 1.0712766564178542 -0.29566261457398835 150 144 132 1.3051254296869035 25 8953 24 9252 22 13226
12380 1.0494041464269492 1.0833864722190727 -0.28524942682865129 120 116 107 1.4042191669418349 25 8955 24 9253 23 11292 22 13100
12381 1.1756530962568266 1.1065006866998415 -0.30858606228324897 24 43 58 0.7753175240341712 25 8876 24 9255 23 11203 22 13108
12382 1.2188675619602045 1.1161005428595845 -0.31502307245510958 44 60 73 0.5549901216334836 25 8960 24 9256 23 11295 22 13109
12383 0.95093552477933219 1.1199816810122889 -0.29239502092311309 153 147 135 1.3143290885113319 25 8963 24 9257 23 11206 22 12931
12384 1.0517687880775293 1.1410811102259442 -0.30860175719501615 142 138 129 1.5743939050643776 25 8965 24 9260 23 11301 22 13236
12385 1.2370997251866154 1.1566469799823371 -0.33920357680569946 21 37 53 0.96746796824854275 25 8888 24 9262 22 13117
12386 1.0324596148454674 0.23513235211485997 0.084254021714965585 161 155 144 1.2603926194977824 25 8913 28 9199 22 13182
12387 1.0058798811726084 0.4460042790958908 0.0089721697357779927 114 115 110 1.6945686994175109 25 8920 26 9336 24 9298
12388 1.0981319831513292 1.0809615454582528 -0.28691677813488492 97 94 87 0.41840614299984136 25 9016 23 11384
12389 1.1570671675433728 1.0892693015303285 -0.29851578586593169 77 82 85 0.68170647245494398 25 8956 24 9338 23 11293 22 13230
12390 1.2898319359462165 1.111797940060697 -0.3189524546244919 47 61 75 1.5577473740628314 25 8957 24 9341 23 11389
